   6.7539062e+01   4.6921875e+01   5.9363281e+01
   6.7183594e+01   4.6921875e+01   5.9007812e+01
   6.7539062e+01   4.6566406e+01   5.9718750e+01
   6.7894531e+01   4.6210938e+01   5.9718750e+01
   6.7539062e+01   4.5855469e+01   5.9718750e+01
   6.7183594e+01   4.6210938e+01   5.9718750e+01
   6.6828125e+01   4.7632812e+01   5.9363281e+01
   6.6828125e+01   4.7988281e+01   5.9007812e+01
   6.6828125e+01   4.7632812e+01   5.8652344e+01
   6.6828125e+01   4.7277344e+01   5.9007812e+01
   6.6117188e+01   4.8343750e+01   5.8652344e+01
   6.6472656e+01   4.8343750e+01   5.9007812e+01
   6.6117188e+01   4.8343750e+01   5.9363281e+01
   6.5761719e+01   4.8343750e+01   5.9007812e+01
   6.6117188e+01   4.7988281e+01   5.9718750e+01
   6.6472656e+01   4.7632812e+01   5.9718750e+01
   6.6117188e+01   4.7277344e+01   5.9718750e+01
   6.5761719e+01   4.7632812e+01   5.9718750e+01
   6.8250000e+01   4.7632812e+01   5.9363281e+01
   6.8250000e+01   4.7988281e+01   5.9007812e+01
   6.8250000e+01   4.7632812e+01   5.8652344e+01
   6.8250000e+01   4.7277344e+01   5.9007812e+01
   6.7539062e+01   4.8343750e+01   5.8652344e+01
   6.7894531e+01   4.8343750e+01   5.9007812e+01
   6.7539062e+01   4.8343750e+01   5.9363281e+01
   6.7183594e+01   4.8343750e+01   5.9007812e+01
   6.7539062e+01   4.7988281e+01   5.9718750e+01
   6.7894531e+01   4.7632812e+01   5.9718750e+01
   6.7539062e+01   4.7277344e+01   5.9718750e+01
   6.7183594e+01   4.7632812e+01   5.9718750e+01
   6.5406250e+01   4.9054688e+01   5.9363281e+01
   6.5406250e+01   4.9410156e+01   5.9007812e+01
   6.5406250e+01   4.8699219e+01   5.9007812e+01
   6.4695312e+01   4.9410156e+01   5.9718750e+01
   6.5050781e+01   4.9054688e+01   5.9718750e+01
   6.4695312e+01   4.8699219e+01   5.9718750e+01
   6.4339844e+01   4.9054688e+01   5.9718750e+01
   6.5050781e+01   5.0476562e+01   5.9718750e+01
   6.6828125e+01   4.9054688e+01   5.7941406e+01
   6.6828125e+01   4.8699219e+01   5.7585938e+01
   6.6472656e+01   4.9054688e+01   5.8296875e+01
   6.6117188e+01   4.8699219e+01   5.8296875e+01
   6.8250000e+01   4.9054688e+01   5.7941406e+01
   6.8250000e+01   4.9410156e+01   5.7585938e+01
   6.8250000e+01   4.9054688e+01   5.7230469e+01
   6.8250000e+01   4.8699219e+01   5.7585938e+01
   6.7894531e+01   4.9765625e+01   5.7585938e+01
   6.7539062e+01   4.9765625e+01   5.7941406e+01
   6.7539062e+01   4.9410156e+01   5.8296875e+01
   6.7894531e+01   4.9054688e+01   5.8296875e+01
   6.7539062e+01   4.8699219e+01   5.8296875e+01
   6.7183594e+01   4.9054688e+01   5.8296875e+01
   6.8250000e+01   5.0476562e+01   5.7941406e+01
   6.8250000e+01   5.0832031e+01   5.7585938e+01
   6.8250000e+01   5.0121094e+01   5.7585938e+01
   6.7539062e+01   5.0832031e+01   5.8296875e+01
   6.7894531e+01   5.0476562e+01   5.8296875e+01
   6.7539062e+01   5.0121094e+01   5.8296875e+01
   6.7183594e+01   5.0476562e+01   5.8296875e+01
   6.6828125e+01   4.9054688e+01   5.9363281e+01
   6.6828125e+01   4.9410156e+01   5.9007812e+01
   6.6828125e+01   4.9054688e+01   5.8652344e+01
   6.6828125e+01   4.8699219e+01   5.9007812e+01
   6.6117188e+01   4.9765625e+01   5.8652344e+01
   6.6472656e+01   4.9765625e+01   5.9007812e+01
   6.6117188e+01   4.9765625e+01   5.9363281e+01
   6.5761719e+01   4.9765625e+01   5.9007812e+01
   6.6117188e+01   4.9410156e+01   5.9718750e+01
   6.6472656e+01   4.9054688e+01   5.9718750e+01
   6.6117188e+01   4.8699219e+01   5.9718750e+01
   6.5761719e+01   4.9054688e+01   5.9718750e+01
   6.8250000e+01   4.9054688e+01   5.9363281e+01
   6.8250000e+01   4.9410156e+01   5.9007812e+01
   6.8250000e+01   4.9054688e+01   5.8652344e+01
   6.8250000e+01   4.8699219e+01   5.9007812e+01
   6.7539062e+01   4.9765625e+01   5.8652344e+01
   6.7894531e+01   4.9765625e+01   5.9007812e+01
   6.7539062e+01   4.9765625e+01   5.9363281e+01
   6.7183594e+01   4.9765625e+01   5.9007812e+01
   6.7539062e+01   4.9410156e+01   5.9718750e+01
   6.7894531e+01   4.9054688e+01   5.9718750e+01
   6.7539062e+01   4.8699219e+01   5.9718750e+01
   6.7183594e+01   4.9054688e+01   5.9718750e+01
   6.6828125e+01   5.0476562e+01   5.9363281e+01
   6.6828125e+01   5.0832031e+01   5.9007812e+01
   6.6828125e+01   5.0476562e+01   5.8652344e+01
   6.6828125e+01   5.0121094e+01   5.9007812e+01
   6.6472656e+01   5.1187500e+01   5.9007812e+01
   6.6117188e+01   5.1187500e+01   5.9363281e+01
   6.6117188e+01   5.0832031e+01   5.9718750e+01
   6.6472656e+01   5.0476562e+01   5.9718750e+01
   6.6117188e+01   5.0121094e+01   5.9718750e+01
   6.5761719e+01   5.0476562e+01   5.9718750e+01
   6.8250000e+01   5.0476562e+01   5.9363281e+01
   6.8250000e+01   5.0832031e+01   5.9007812e+01
   6.8250000e+01   5.0476562e+01   5.8652344e+01
   6.8250000e+01   5.0121094e+01   5.9007812e+01
   6.7539062e+01   5.1187500e+01   5.8652344e+01
   6.7894531e+01   5.1187500e+01   5.9007812e+01
   6.7539062e+01   5.1187500e+01   5.9363281e+01
   6.7183594e+01   5.1187500e+01   5.9007812e+01
   6.7539062e+01   5.0832031e+01   5.9718750e+01
   6.7894531e+01   5.0476562e+01   5.9718750e+01
   6.7539062e+01   5.0121094e+01   5.9718750e+01
   6.7183594e+01   5.0476562e+01   5.9718750e+01
   6.3984375e+01   4.6210938e+01   6.0785156e+01
   6.3984375e+01   4.6566406e+01   6.0429688e+01
   6.3984375e+01   4.6210938e+01   6.0074219e+01
   6.3984375e+01   4.5855469e+01   6.0429688e+01
   6.3273438e+01   4.6921875e+01   6.0074219e+01
   6.3628906e+01   4.6921875e+01   6.0429688e+01
   6.3273438e+01   4.6921875e+01   6.0785156e+01
   6.2917969e+01   4.6921875e+01   6.0429688e+01
   6.3273438e+01   4.6566406e+01   6.1140625e+01
   6.3628906e+01   4.6210938e+01   6.1140625e+01
   6.3273438e+01   4.5855469e+01   6.1140625e+01
   6.2917969e+01   4.6210938e+01   6.1140625e+01
   6.5406250e+01   4.6210938e+01   6.0785156e+01
   6.5406250e+01   4.6566406e+01   6.0429688e+01
   6.5406250e+01   4.6210938e+01   6.0074219e+01
   6.5406250e+01   4.5855469e+01   6.0429688e+01
   6.4695312e+01   4.6921875e+01   6.0074219e+01
   6.5050781e+01   4.6921875e+01   6.0429688e+01
   6.4695312e+01   4.6921875e+01   6.0785156e+01
   6.4339844e+01   4.6921875e+01   6.0429688e+01
   6.4695312e+01   4.6566406e+01   6.1140625e+01
   6.5050781e+01   4.6210938e+01   6.1140625e+01
   6.4695312e+01   4.5855469e+01   6.1140625e+01
   6.4339844e+01   4.6210938e+01   6.1140625e+01
   6.3984375e+01   4.7632812e+01   6.0785156e+01
   6.3984375e+01   4.7988281e+01   6.0429688e+01
   6.3984375e+01   4.7632812e+01   6.0074219e+01
   6.3984375e+01   4.7277344e+01   6.0429688e+01
   6.3273438e+01   4.8343750e+01   6.0074219e+01
   6.3628906e+01   4.8343750e+01   6.0429688e+01
   6.3273438e+01   4.8343750e+01   6.0785156e+01
   6.2917969e+01   4.8343750e+01   6.0429688e+01
   6.3273438e+01   4.7988281e+01   6.1140625e+01
   6.3628906e+01   4.7632812e+01   6.1140625e+01
   6.3273438e+01   4.7277344e+01   6.1140625e+01
   6.2917969e+01   4.7632812e+01   6.1140625e+01
   6.5406250e+01   4.7632812e+01   6.0785156e+01
   6.5406250e+01   4.7988281e+01   6.0429688e+01
   6.5406250e+01   4.7632812e+01   6.0074219e+01
   6.5406250e+01   4.7277344e+01   6.0429688e+01
   6.4695312e+01   4.8343750e+01   6.0074219e+01
   6.5050781e+01   4.8343750e+01   6.0429688e+01
   6.4695312e+01   4.8343750e+01   6.0785156e+01
   6.4339844e+01   4.8343750e+01   6.0429688e+01
   6.4695312e+01   4.7988281e+01   6.1140625e+01
   6.5050781e+01   4.7632812e+01   6.1140625e+01
   6.4695312e+01   4.7277344e+01   6.1140625e+01
   6.4339844e+01   4.7632812e+01   6.1140625e+01
   6.3984375e+01   4.6210938e+01   6.2207031e+01
   6.3984375e+01   4.6566406e+01   6.1851562e+01
   6.3984375e+01   4.6210938e+01   6.1496094e+01
   6.3984375e+01   4.5855469e+01   6.1851562e+01
   6.3273438e+01   4.6921875e+01   6.1496094e+01
   6.3628906e+01   4.6921875e+01   6.1851562e+01
   6.3273438e+01   4.6921875e+01   6.2207031e+01
   6.2917969e+01   4.6921875e+01   6.1851562e+01
   6.3273438e+01   4.6566406e+01   6.2562500e+01
   6.3628906e+01   4.6210938e+01   6.2562500e+01
   6.3273438e+01   4.5855469e+01   6.2562500e+01
   6.2917969e+01   4.6210938e+01   6.2562500e+01
   6.5406250e+01   4.6210938e+01   6.2207031e+01
   6.5406250e+01   4.6566406e+01   6.1851562e+01
   6.5406250e+01   4.6210938e+01   6.1496094e+01
   6.5406250e+01   4.5855469e+01   6.1851562e+01
   6.4695312e+01   4.6921875e+01   6.1496094e+01
   6.5050781e+01   4.6921875e+01   6.1851562e+01
   6.4695312e+01   4.6921875e+01   6.2207031e+01
   6.4339844e+01   4.6921875e+01   6.1851562e+01
   6.4695312e+01   4.6566406e+01   6.2562500e+01
   6.5050781e+01   4.6210938e+01   6.2562500e+01
   6.4695312e+01   4.5855469e+01   6.2562500e+01
   6.4339844e+01   4.6210938e+01   6.2562500e+01
   6.3984375e+01   4.7632812e+01   6.2207031e+01
   6.3984375e+01   4.7988281e+01   6.1851562e+01
   6.3984375e+01   4.7632812e+01   6.1496094e+01
   6.3984375e+01   4.7277344e+01   6.1851562e+01
   6.3273438e+01   4.8343750e+01   6.1496094e+01
   6.3628906e+01   4.8343750e+01   6.1851562e+01
   6.3273438e+01   4.8343750e+01   6.2207031e+01
   6.2917969e+01   4.8343750e+01   6.1851562e+01
   6.3273438e+01   4.7988281e+01   6.2562500e+01
   6.3628906e+01   4.7632812e+01   6.2562500e+01
   6.3273438e+01   4.7277344e+01   6.2562500e+01
   6.2917969e+01   4.7632812e+01   6.2562500e+01
   6.5406250e+01   4.7632812e+01   6.2207031e+01
   6.5406250e+01   4.7988281e+01   6.1851562e+01
   6.5406250e+01   4.7632812e+01   6.1496094e+01
   6.5406250e+01   4.7277344e+01   6.1851562e+01
   6.4695312e+01   4.8343750e+01   6.1496094e+01
   6.5050781e+01   4.8343750e+01   6.1851562e+01
   6.4695312e+01   4.8343750e+01   6.2207031e+01
   6.4339844e+01   4.8343750e+01   6.1851562e+01
   6.4695312e+01   4.7988281e+01   6.2562500e+01
   6.5050781e+01   4.7632812e+01   6.2562500e+01
   6.4695312e+01   4.7277344e+01   6.2562500e+01
   6.4339844e+01   4.7632812e+01   6.2562500e+01
   6.6828125e+01   4.6210938e+01   6.0785156e+01
   6.6828125e+01   4.6566406e+01   6.0429688e+01
   6.6828125e+01   4.6210938e+01   6.0074219e+01
   6.6828125e+01   4.5855469e+01   6.0429688e+01
   6.6117188e+01   4.6921875e+01   6.0074219e+01
   6.6472656e+01   4.6921875e+01   6.0429688e+01
   6.6117188e+01   4.6921875e+01   6.0785156e+01
   6.5761719e+01   4.6921875e+01   6.0429688e+01
   6.6117188e+01   4.6566406e+01   6.1140625e+01
   6.6472656e+01   4.6210938e+01   6.1140625e+01
   6.6117188e+01   4.5855469e+01   6.1140625e+01
   6.5761719e+01   4.6210938e+01   6.1140625e+01
   6.8250000e+01   4.6210938e+01   6.0785156e+01
   6.8250000e+01   4.6566406e+01   6.0429688e+01
   6.8250000e+01   4.6210938e+01   6.0074219e+01
   6.8250000e+01   4.5855469e+01   6.0429688e+01
   6.7539062e+01   4.6921875e+01   6.0074219e+01
   6.7894531e+01   4.6921875e+01   6.0429688e+01
   6.7539062e+01   4.6921875e+01   6.0785156e+01
   6.7183594e+01   4.6921875e+01   6.0429688e+01
   6.7539062e+01   4.6566406e+01   6.1140625e+01
   6.7894531e+01   4.6210938e+01   6.1140625e+01
   6.7539062e+01   4.5855469e+01   6.1140625e+01
   6.7183594e+01   4.6210938e+01   6.1140625e+01
   6.6828125e+01   4.7632812e+01   6.0785156e+01
   6.6828125e+01   4.7988281e+01   6.0429688e+01
   6.6828125e+01   4.7632812e+01   6.0074219e+01
   6.6828125e+01   4.7277344e+01   6.0429688e+01
   6.6117188e+01   4.8343750e+01   6.0074219e+01
   6.6472656e+01   4.8343750e+01   6.0429688e+01
   6.6117188e+01   4.8343750e+01   6.0785156e+01
   6.5761719e+01   4.8343750e+01   6.0429688e+01
   6.6117188e+01   4.7988281e+01   6.1140625e+01
   6.6472656e+01   4.7632812e+01   6.1140625e+01
   6.6117188e+01   4.7277344e+01   6.1140625e+01
   6.5761719e+01   4.7632812e+01   6.1140625e+01
   6.8250000e+01   4.7632812e+01   6.0785156e+01
   6.8250000e+01   4.7988281e+01   6.0429688e+01
   6.8250000e+01   4.7632812e+01   6.0074219e+01
   6.8250000e+01   4.7277344e+01   6.0429688e+01
   6.7539062e+01   4.8343750e+01   6.0074219e+01
   6.7894531e+01   4.8343750e+01   6.0429688e+01
   6.7539062e+01   4.8343750e+01   6.0785156e+01
   6.7183594e+01   4.8343750e+01   6.0429688e+01
   6.7539062e+01   4.7988281e+01   6.1140625e+01
   6.7894531e+01   4.7632812e+01   6.1140625e+01
   6.7539062e+01   4.7277344e+01   6.1140625e+01
   6.7183594e+01   4.7632812e+01   6.1140625e+01
   6.6828125e+01   4.6210938e+01   6.2207031e+01
   6.6828125e+01   4.6566406e+01   6.1851562e+01
   6.6828125e+01   4.6210938e+01   6.1496094e+01
   6.6828125e+01   4.5855469e+01   6.1851562e+01
   6.6117188e+01   4.6921875e+01   6.1496094e+01
   6.6472656e+01   4.6921875e+01   6.1851562e+01
   6.6117188e+01   4.6921875e+01   6.2207031e+01
   6.5761719e+01   4.6921875e+01   6.1851562e+01
   6.6117188e+01   4.6566406e+01   6.2562500e+01
   6.6472656e+01   4.6210938e+01   6.2562500e+01
   6.6117188e+01   4.5855469e+01   6.2562500e+01
   6.5761719e+01   4.6210938e+01   6.2562500e+01
   6.8250000e+01   4.6033203e+01   6.2207031e+01
   6.8250000e+01   4.6388672e+01   6.2207031e+01
   6.8250000e+01   4.6566406e+01   6.1851562e+01
   6.8250000e+01   4.6210938e+01   6.1496094e+01
   6.8250000e+01   4.5855469e+01   6.1673828e+01
   6.8250000e+01   4.5855469e+01   6.2029297e+01
   6.7539062e+01   4.6921875e+01   6.1496094e+01
   6.7894531e+01   4.6921875e+01   6.1851562e+01
   6.7539062e+01   4.6921875e+01   6.2207031e+01
   6.7183594e+01   4.6921875e+01   6.1851562e+01
   6.7539062e+01   4.6566406e+01   6.2562500e+01
   6.7894531e+01   4.6388672e+01   6.2562500e+01
   6.7894531e+01   4.6033203e+01   6.2562500e+01
   6.7539062e+01   4.5855469e+01   6.2562500e+01
   6.7183594e+01   4.6210938e+01   6.2562500e+01
   6.6828125e+01   4.7632812e+01   6.2207031e+01
   6.6828125e+01   4.7988281e+01   6.1851562e+01
   6.6828125e+01   4.7632812e+01   6.1496094e+01
   6.6828125e+01   4.7277344e+01   6.1851562e+01
   6.6117188e+01   4.8343750e+01   6.1496094e+01
   6.6472656e+01   4.8343750e+01   6.1851562e+01
   6.6117188e+01   4.8343750e+01   6.2207031e+01
   6.5761719e+01   4.8343750e+01   6.1851562e+01
   6.6117188e+01   4.7988281e+01   6.2562500e+01
   6.6472656e+01   4.7632812e+01   6.2562500e+01
   6.6117188e+01   4.7277344e+01   6.2562500e+01
   6.5761719e+01   4.7632812e+01   6.2562500e+01
   6.8250000e+01   4.7632812e+01   6.2207031e+01
   6.8250000e+01   4.7988281e+01   6.1851562e+01
   6.8250000e+01   4.7632812e+01   6.1496094e+01
   6.8250000e+01   4.7277344e+01   6.1851562e+01
   6.7539062e+01   4.8343750e+01   6.1496094e+01
   6.7894531e+01   4.8343750e+01   6.1851562e+01
   6.7539062e+01   4.8343750e+01   6.2207031e+01
   6.7183594e+01   4.8343750e+01   6.1851562e+01
   6.7539062e+01   4.7988281e+01   6.2562500e+01
   6.7894531e+01   4.7632812e+01   6.2562500e+01
   6.7539062e+01   4.7277344e+01   6.2562500e+01
   6.7183594e+01   4.7632812e+01   6.2562500e+01
   6.3984375e+01   4.9054688e+01   6.0785156e+01
   6.3984375e+01   4.9410156e+01   6.0429688e+01
   6.3984375e+01   4.9054688e+01   6.0074219e+01
   6.3984375e+01   4.8699219e+01   6.0429688e+01
   6.3628906e+01   4.9765625e+01   6.0429688e+01
   6.3273438e+01   4.9765625e+01   6.0785156e+01
   6.3273438e+01   4.9410156e+01   6.1140625e+01
   6.3628906e+01   4.9054688e+01   6.1140625e+01
   6.3273438e+01   4.8699219e+01   6.1140625e+01
   6.2917969e+01   4.9054688e+01   6.1140625e+01
   6.5406250e+01   4.9054688e+01   6.0785156e+01
   6.5406250e+01   4.9410156e+01   6.0429688e+01
   6.5406250e+01   4.9054688e+01   6.0074219e+01
   6.5406250e+01   4.8699219e+01   6.0429688e+01
   6.4695312e+01   4.9765625e+01   6.0074219e+01
   6.5050781e+01   4.9765625e+01   6.0429688e+01
   6.4695312e+01   4.9765625e+01   6.0785156e+01
   6.4339844e+01   4.9765625e+01   6.0429688e+01
   6.4695312e+01   4.9410156e+01   6.1140625e+01
   6.5050781e+01   4.9054688e+01   6.1140625e+01
   6.4695312e+01   4.8699219e+01   6.1140625e+01
   6.4339844e+01   4.9054688e+01   6.1140625e+01
   6.3984375e+01   5.0476562e+01   6.0785156e+01
   6.3984375e+01   5.0121094e+01   6.0429688e+01
   6.3628906e+01   5.0476562e+01   6.1140625e+01
   6.3273438e+01   5.0121094e+01   6.1140625e+01
   6.5406250e+01   5.0476562e+01   6.0785156e+01
   6.5406250e+01   5.0832031e+01   6.0429688e+01
   6.5406250e+01   5.0476562e+01   6.0074219e+01
   6.5406250e+01   5.0121094e+01   6.0429688e+01
   6.5050781e+01   5.1187500e+01   6.0429688e+01
   6.4695312e+01   5.1187500e+01   6.0785156e+01
   6.4695312e+01   5.0832031e+01   6.1140625e+01
   6.5050781e+01   5.0476562e+01   6.1140625e+01
   6.4695312e+01   5.0121094e+01   6.1140625e+01
   6.4339844e+01   5.0476562e+01   6.1140625e+01
   6.3984375e+01   4.9054688e+01   6.2207031e+01
   6.3984375e+01   4.9410156e+01   6.1851562e+01
   6.3984375e+01   4.9054688e+01   6.1496094e+01
   6.3984375e+01   4.8699219e+01   6.1851562e+01
   6.3273438e+01   4.9765625e+01   6.1496094e+01
   6.3628906e+01   4.9765625e+01   6.1851562e+01
   6.3273438e+01   4.9765625e+01   6.2207031e+01
   6.2917969e+01   4.9765625e+01   6.1851562e+01
   6.3273438e+01   4.9410156e+01   6.2562500e+01
   6.3628906e+01   4.9054688e+01   6.2562500e+01
   6.3273438e+01   4.8699219e+01   6.2562500e+01
   6.2917969e+01   4.9054688e+01   6.2562500e+01
   6.5406250e+01   4.9054688e+01   6.2207031e+01
   6.5406250e+01   4.9410156e+01   6.1851562e+01
   6.5406250e+01   4.9054688e+01   6.1496094e+01
   6.5406250e+01   4.8699219e+01   6.1851562e+01
   6.4695312e+01   4.9765625e+01   6.1496094e+01
   6.5050781e+01   4.9765625e+01   6.1851562e+01
   6.4695312e+01   4.9765625e+01   6.2207031e+01
   6.4339844e+01   4.9765625e+01   6.1851562e+01
   6.4695312e+01   4.9410156e+01   6.2562500e+01
   6.5050781e+01   4.9054688e+01   6.2562500e+01
   6.4695312e+01   4.8699219e+01   6.2562500e+01
   6.4339844e+01   4.9054688e+01   6.2562500e+01
   6.3984375e+01   5.0476562e+01   6.2207031e+01
   6.3984375e+01   5.0832031e+01   6.1851562e+01
   6.3984375e+01   5.0476562e+01   6.1496094e+01
   6.3984375e+01   5.0121094e+01   6.1851562e+01
   6.3273438e+01   5.1187500e+01   6.1496094e+01
   6.3628906e+01   5.1187500e+01   6.1851562e+01
   6.3273438e+01   5.1187500e+01   6.2207031e+01
   6.2917969e+01   5.1187500e+01   6.1851562e+01
   6.3273438e+01   5.0832031e+01   6.2562500e+01
   6.3628906e+01   5.0476562e+01   6.2562500e+01
   6.3273438e+01   5.0121094e+01   6.2562500e+01
   6.2917969e+01   5.0476562e+01   6.2562500e+01
   6.5406250e+01   5.0476562e+01   6.2207031e+01
   6.5406250e+01   5.0832031e+01   6.1851562e+01
   6.5406250e+01   5.0476562e+01   6.1496094e+01
   6.5406250e+01   5.0121094e+01   6.1851562e+01
   6.4695312e+01   5.1187500e+01   6.1496094e+01
   6.5050781e+01   5.1187500e+01   6.1851562e+01
   6.4695312e+01   5.1187500e+01   6.2207031e+01
   6.4339844e+01   5.1187500e+01   6.1851562e+01
   6.4695312e+01   5.0832031e+01   6.2562500e+01
   6.5050781e+01   5.0476562e+01   6.2562500e+01
   6.4695312e+01   5.0121094e+01   6.2562500e+01
   6.4339844e+01   5.0476562e+01   6.2562500e+01
   6.6828125e+01   4.9054688e+01   6.0785156e+01
   6.6828125e+01   4.9410156e+01   6.0429688e+01
   6.6828125e+01   4.9054688e+01   6.0074219e+01
   6.6828125e+01   4.8699219e+01   6.0429688e+01
   6.6117188e+01   4.9765625e+01   6.0074219e+01
   6.6472656e+01   4.9765625e+01   6.0429688e+01
   6.6117188e+01   4.9765625e+01   6.0785156e+01
   6.5761719e+01   4.9765625e+01   6.0429688e+01
   6.6117188e+01   4.9410156e+01   6.1140625e+01
   6.6472656e+01   4.9054688e+01   6.1140625e+01
   6.6117188e+01   4.8699219e+01   6.1140625e+01
   6.5761719e+01   4.9054688e+01   6.1140625e+01
   6.8250000e+01   4.9054688e+01   6.0785156e+01
   6.8250000e+01   4.9410156e+01   6.0429688e+01
   6.8250000e+01   4.9054688e+01   6.0074219e+01
   6.8250000e+01   4.8699219e+01   6.0429688e+01
   6.7539062e+01   4.9765625e+01   6.0074219e+01
   6.7894531e+01   4.9765625e+01   6.0429688e+01
   6.7539062e+01   4.9765625e+01   6.0785156e+01
   6.7183594e+01   4.9765625e+01   6.0429688e+01
   6.7539062e+01   4.9410156e+01   6.1140625e+01
   6.7894531e+01   4.9054688e+01   6.1140625e+01
   6.7539062e+01   4.8699219e+01   6.1140625e+01
   6.7183594e+01   4.9054688e+01   6.1140625e+01
   6.6828125e+01   5.0476562e+01   6.0785156e+01
   6.6828125e+01   5.0832031e+01   6.0429688e+01
   6.6828125e+01   5.0476562e+01   6.0074219e+01
   6.6828125e+01   5.0121094e+01   6.0429688e+01
   6.6117188e+01   5.1187500e+01   6.0074219e+01
   6.6472656e+01   5.1187500e+01   6.0429688e+01
   6.6117188e+01   5.1187500e+01   6.0785156e+01
   6.5761719e+01   5.1187500e+01   6.0429688e+01
   6.6117188e+01   5.0832031e+01   6.1140625e+01
   6.6472656e+01   5.0476562e+01   6.1140625e+01
   6.6117188e+01   5.0121094e+01   6.1140625e+01
   6.5761719e+01   5.0476562e+01   6.1140625e+01
   6.8250000e+01   5.0476562e+01   6.0785156e+01
   6.8250000e+01   5.0832031e+01   6.0429688e+01
   6.8250000e+01   5.0476562e+01   6.0074219e+01
   6.8250000e+01   5.0121094e+01   6.0429688e+01
   6.7539062e+01   5.1187500e+01   6.0074219e+01
   6.7894531e+01   5.1187500e+01   6.0429688e+01
   6.7539062e+01   5.1187500e+01   6.0785156e+01
   6.7183594e+01   5.1187500e+01   6.0429688e+01
   6.7539062e+01   5.0832031e+01   6.1140625e+01
   6.7894531e+01   5.0476562e+01   6.1140625e+01
   6.7539062e+01   5.0121094e+01   6.1140625e+01
   6.7183594e+01   5.0476562e+01   6.1140625e+01
   6.6828125e+01   4.9054688e+01   6.2207031e+01
   6.6828125e+01   4.9410156e+01   6.1851562e+01
   6.6828125e+01   4.9054688e+01   6.1496094e+01
   6.6828125e+01   4.8699219e+01   6.1851562e+01
   6.6117188e+01   4.9765625e+01   6.1496094e+01
   6.6472656e+01   4.9765625e+01   6.1851562e+01
   6.6117188e+01   4.9765625e+01   6.2207031e+01
   6.5761719e+01   4.9765625e+01   6.1851562e+01
   6.6117188e+01   4.9410156e+01   6.2562500e+01
   6.6472656e+01   4.9054688e+01   6.2562500e+01
   6.6117188e+01   4.8699219e+01   6.2562500e+01
   6.5761719e+01   4.9054688e+01   6.2562500e+01
   6.8250000e+01   4.9054688e+01   6.2207031e+01
   6.8250000e+01   4.9410156e+01   6.1851562e+01
   6.8250000e+01   4.9054688e+01   6.1496094e+01
   6.8250000e+01   4.8699219e+01   6.1851562e+01
   6.7539062e+01   4.9765625e+01   6.1496094e+01
   6.7894531e+01   4.9765625e+01   6.1851562e+01
   6.7539062e+01   4.9765625e+01   6.2207031e+01
   6.7183594e+01   4.9765625e+01   6.1851562e+01
   6.7539062e+01   4.9410156e+01   6.2562500e+01
   6.7894531e+01   4.9054688e+01   6.2562500e+01
   6.7539062e+01   4.8699219e+01   6.2562500e+01
   6.7183594e+01   4.9054688e+01   6.2562500e+01
   6.6828125e+01   5.0476562e+01   6.2207031e+01
   6.6828125e+01   5.0832031e+01   6.1851562e+01
   6.6828125e+01   5.0476562e+01   6.1496094e+01
   6.6828125e+01   5.0121094e+01   6.1851562e+01
   6.6117188e+01   5.1187500e+01   6.1496094e+01
   6.6472656e+01   5.1187500e+01   6.1851562e+01
   6.6117188e+01   5.1187500e+01   6.2207031e+01
   6.5761719e+01   5.1187500e+01   6.1851562e+01
   6.6117188e+01   5.0832031e+01   6.2562500e+01
   6.6472656e+01   5.0476562e+01   6.2562500e+01
   6.6117188e+01   5.0121094e+01   6.2562500e+01
   6.5761719e+01   5.0476562e+01   6.2562500e+01
   6.8250000e+01   5.0476562e+01   6.2207031e+01
   6.8250000e+01   5.0832031e+01   6.1851562e+01
   6.8250000e+01   5.0476562e+01   6.1496094e+01
   6.8250000e+01   5.0121094e+01   6.1851562e+01
   6.7539062e+01   5.1187500e+01   6.1496094e+01
   6.7894531e+01   5.1187500e+01   6.1851562e+01
   6.7539062e+01   5.1187500e+01   6.2207031e+01
   6.7183594e+01   5.1187500e+01   6.1851562e+01
   6.7539062e+01   5.0832031e+01   6.2562500e+01
   6.7894531e+01   5.0476562e+01   6.2562500e+01
   6.7539062e+01   5.0121094e+01   6.2562500e+01
   6.7183594e+01   5.0476562e+01   6.2562500e+01
   6.2207031e+01   5.1898438e+01   6.2562500e+01
   6.7894531e+01   5.1898438e+01   5.8296875e+01
   6.6828125e+01   5.1898438e+01   5.9363281e+01
   6.6828125e+01   5.1542969e+01   5.9007812e+01
   6.6472656e+01   5.1898438e+01   5.9718750e+01
   6.6117188e+01   5.1542969e+01   5.9718750e+01
   6.8250000e+01   5.1898438e+01   5.9363281e+01
   6.8250000e+01   5.2253906e+01   5.9007812e+01
   6.8250000e+01   5.1898438e+01   5.8652344e+01
   6.8250000e+01   5.1542969e+01   5.9007812e+01
   6.7894531e+01   5.2609375e+01   5.9007812e+01
   6.7539062e+01   5.2609375e+01   5.9363281e+01
   6.7539062e+01   5.2253906e+01   5.9718750e+01
   6.7894531e+01   5.1898438e+01   5.9718750e+01
   6.7539062e+01   5.1542969e+01   5.9718750e+01
   6.7183594e+01   5.1898438e+01   5.9718750e+01
   6.8250000e+01   5.3320312e+01   5.9363281e+01
   6.8250000e+01   5.3675781e+01   5.9007812e+01
   6.8250000e+01   5.2964844e+01   5.9007812e+01
   6.7539062e+01   5.3675781e+01   5.9718750e+01
   6.7894531e+01   5.3320312e+01   5.9718750e+01
   6.7539062e+01   5.2964844e+01   5.9718750e+01
   6.7183594e+01   5.3320312e+01   5.9718750e+01
   6.5406250e+01   5.1898438e+01   6.0785156e+01
   6.5406250e+01   5.2253906e+01   6.0429688e+01
   6.5406250e+01   5.1542969e+01   6.0429688e+01
   6.4695312e+01   5.2253906e+01   6.1140625e+01
   6.5050781e+01   5.1898438e+01   6.1140625e+01
   6.4695312e+01   5.1542969e+01   6.1140625e+01
   6.4339844e+01   5.1898438e+01   6.1140625e+01
   6.5050781e+01   5.3320312e+01   6.1140625e+01
   6.3984375e+01   5.1898438e+01   6.2207031e+01
   6.3984375e+01   5.2253906e+01   6.1851562e+01
   6.3984375e+01   5.1898438e+01   6.1496094e+01
   6.3984375e+01   5.1542969e+01   6.1851562e+01
   6.3628906e+01   5.2609375e+01   6.1851562e+01
   6.3273438e+01   5.2609375e+01   6.2207031e+01
   6.3273438e+01   5.2253906e+01   6.2562500e+01
   6.3628906e+01   5.1898438e+01   6.2562500e+01
   6.3273438e+01   5.1542969e+01   6.2562500e+01
   6.2917969e+01   5.1898438e+01   6.2562500e+01
   6.5406250e+01   5.1898438e+01   6.2207031e+01
   6.5406250e+01   5.2253906e+01   6.1851562e+01
   6.5406250e+01   5.1898438e+01   6.1496094e+01
   6.5406250e+01   5.1542969e+01   6.1851562e+01
   6.4695312e+01   5.2609375e+01   6.1496094e+01
   6.5050781e+01   5.2609375e+01   6.1851562e+01
   6.4695312e+01   5.2609375e+01   6.2207031e+01
   6.4339844e+01   5.2609375e+01   6.1851562e+01
   6.4695312e+01   5.2253906e+01   6.2562500e+01
   6.5050781e+01   5.1898438e+01   6.2562500e+01
   6.4695312e+01   5.1542969e+01   6.2562500e+01
   6.4339844e+01   5.1898438e+01   6.2562500e+01
   6.3984375e+01   5.3320312e+01   6.2207031e+01
   6.3984375e+01   5.2964844e+01   6.1851562e+01
   6.3628906e+01   5.3320312e+01   6.2562500e+01
   6.3273438e+01   5.2964844e+01   6.2562500e+01
   6.5406250e+01   5.3320312e+01   6.2207031e+01
   6.5406250e+01   5.3675781e+01   6.1851562e+01
   6.5406250e+01   5.3320312e+01   6.1496094e+01
   6.5406250e+01   5.2964844e+01   6.1851562e+01
   6.4695312e+01   5.3675781e+01   6.2562500e+01
   6.5050781e+01   5.3320312e+01   6.2562500e+01
   6.4695312e+01   5.2964844e+01   6.2562500e+01
   6.4339844e+01   5.3320312e+01   6.2562500e+01
   6.6828125e+01   5.1898438e+01   6.0785156e+01
   6.6828125e+01   5.2253906e+01   6.0429688e+01
   6.6828125e+01   5.1898438e+01   6.0074219e+01
   6.6828125e+01   5.1542969e+01   6.0429688e+01
   6.6117188e+01   5.2609375e+01   6.0074219e+01
   6.6472656e+01   5.2609375e+01   6.0429688e+01
   6.6117188e+01   5.2609375e+01   6.0785156e+01
   6.5761719e+01   5.2609375e+01   6.0429688e+01
   6.6117188e+01   5.2253906e+01   6.1140625e+01
   6.6472656e+01   5.1898438e+01   6.1140625e+01
   6.6117188e+01   5.1542969e+01   6.1140625e+01
   6.5761719e+01   5.1898438e+01   6.1140625e+01
   6.8250000e+01   5.1898438e+01   6.0785156e+01
   6.8250000e+01   5.2253906e+01   6.0429688e+01
   6.8250000e+01   5.1898438e+01   6.0074219e+01
   6.8250000e+01   5.1542969e+01   6.0429688e+01
   6.7539062e+01   5.2609375e+01   6.0074219e+01
   6.7894531e+01   5.2609375e+01   6.0429688e+01
   6.7539062e+01   5.2609375e+01   6.0785156e+01
   6.7183594e+01   5.2609375e+01   6.0429688e+01
   6.7539062e+01   5.2253906e+01   6.1140625e+01
   6.7894531e+01   5.1898438e+01   6.1140625e+01
   6.7539062e+01   5.1542969e+01   6.1140625e+01
   6.7183594e+01   5.1898438e+01   6.1140625e+01
   6.6828125e+01   5.3320312e+01   6.0785156e+01
   6.6828125e+01   5.3675781e+01   6.0429688e+01
   6.6828125e+01   5.3320312e+01   6.0074219e+01
   6.6828125e+01   5.2964844e+01   6.0429688e+01
   6.6472656e+01   5.4031250e+01   6.0429688e+01
   6.6117188e+01   5.4031250e+01   6.0785156e+01
   6.6117188e+01   5.3675781e+01   6.1140625e+01
   6.6472656e+01   5.3320312e+01   6.1140625e+01
   6.6117188e+01   5.2964844e+01   6.1140625e+01
   6.5761719e+01   5.3320312e+01   6.1140625e+01
   6.8250000e+01   5.3320312e+01   6.0785156e+01
   6.8250000e+01   5.3675781e+01   6.0429688e+01
   6.8250000e+01   5.3320312e+01   6.0074219e+01
   6.8250000e+01   5.2964844e+01   6.0429688e+01
   6.7539062e+01   5.4031250e+01   6.0074219e+01
   6.7894531e+01   5.4031250e+01   6.0429688e+01
   6.7539062e+01   5.4031250e+01   6.0785156e+01
   6.7183594e+01   5.4031250e+01   6.0429688e+01
   6.7539062e+01   5.3675781e+01   6.1140625e+01
   6.7894531e+01   5.3320312e+01   6.1140625e+01
   6.7539062e+01   5.2964844e+01   6.1140625e+01
   6.7183594e+01   5.3320312e+01   6.1140625e+01
   6.6828125e+01   5.1898438e+01   6.2207031e+01
   6.6828125e+01   5.2253906e+01   6.1851562e+01
   6.6828125e+01   5.1898438e+01   6.1496094e+01
   6.6828125e+01   5.1542969e+01   6.1851562e+01
   6.6117188e+01   5.2609375e+01   6.1496094e+01
   6.6472656e+01   5.2609375e+01   6.1851562e+01
   6.6117188e+01   5.2609375e+01   6.2207031e+01
   6.5761719e+01   5.2609375e+01   6.1851562e+01
   6.6117188e+01   5.2253906e+01   6.2562500e+01
   6.6472656e+01   5.1898438e+01   6.2562500e+01
   6.6117188e+01   5.1542969e+01   6.2562500e+01
   6.5761719e+01   5.1898438e+01   6.2562500e+01
   6.8250000e+01   5.1898438e+01   6.2207031e+01
   6.8250000e+01   5.2253906e+01   6.1851562e+01
   6.8250000e+01   5.1898438e+01   6.1496094e+01
   6.8250000e+01   5.1542969e+01   6.1851562e+01
   6.7539062e+01   5.2609375e+01   6.1496094e+01
   6.7894531e+01   5.2609375e+01   6.1851562e+01
   6.7539062e+01   5.2609375e+01   6.2207031e+01
   6.7183594e+01   5.2609375e+01   6.1851562e+01
   6.7539062e+01   5.2253906e+01   6.2562500e+01
   6.7894531e+01   5.1898438e+01   6.2562500e+01
   6.7539062e+01   5.1542969e+01   6.2562500e+01
   6.7183594e+01   5.1898438e+01   6.2562500e+01
   6.6828125e+01   5.3320312e+01   6.2207031e+01
   6.6828125e+01   5.3675781e+01   6.1851562e+01
   6.6828125e+01   5.3320312e+01   6.1496094e+01
   6.6828125e+01   5.2964844e+01   6.1851562e+01
   6.6472656e+01   5.3320312e+01   6.2562500e+01
   6.6117188e+01   5.2964844e+01   6.2562500e+01
   6.5761719e+01   5.3320312e+01   6.2562500e+01
   6.8250000e+01   5.3142578e+01   6.2207031e+01
   6.8250000e+01   5.3320312e+01   6.1496094e+01
   6.8250000e+01   5.2964844e+01   6.1851562e+01
   6.7894531e+01   5.3142578e+01   6.2562500e+01
   6.7539062e+01   5.2964844e+01   6.2562500e+01
   6.7183594e+01   5.3320312e+01   6.2562500e+01
   5.8296875e+01   4.6210938e+01   6.3628906e+01
   5.8296875e+01   4.6566406e+01   6.3273438e+01
   5.8296875e+01   4.6210938e+01   6.2917969e+01
   5.8296875e+01   4.5855469e+01   6.3273438e+01
   5.7585938e+01   4.6921875e+01   6.3628906e+01
   5.7585938e+01   4.6566406e+01   6.3984375e+01
   5.7941406e+01   4.6210938e+01   6.3984375e+01
   5.7585938e+01   4.5855469e+01   6.3984375e+01
   5.7230469e+01   4.6210938e+01   6.3984375e+01
   5.9718750e+01   4.6210938e+01   6.3628906e+01
   5.9718750e+01   4.6566406e+01   6.3273438e+01
   5.9718750e+01   4.6210938e+01   6.2917969e+01
   5.9718750e+01   4.5855469e+01   6.3273438e+01
   5.9007812e+01   4.6921875e+01   6.2917969e+01
   5.9363281e+01   4.6921875e+01   6.3273438e+01
   5.9007812e+01   4.6921875e+01   6.3628906e+01
   5.8652344e+01   4.6921875e+01   6.3273438e+01
   5.9007812e+01   4.6566406e+01   6.3984375e+01
   5.9363281e+01   4.6210938e+01   6.3984375e+01
   5.9007812e+01   4.5855469e+01   6.3984375e+01
   5.8652344e+01   4.6210938e+01   6.3984375e+01
   5.8296875e+01   4.7632812e+01   6.3628906e+01
   5.8296875e+01   4.7277344e+01   6.3273438e+01
   5.7941406e+01   4.7632812e+01   6.3984375e+01
   5.7585938e+01   4.7277344e+01   6.3984375e+01
   5.9718750e+01   4.7632812e+01   6.3628906e+01
   5.9718750e+01   4.7988281e+01   6.3273438e+01
   5.9718750e+01   4.7632812e+01   6.2917969e+01
   5.9718750e+01   4.7277344e+01   6.3273438e+01
   5.9363281e+01   4.8343750e+01   6.3273438e+01
   5.9007812e+01   4.8343750e+01   6.3628906e+01
   5.9007812e+01   4.7988281e+01   6.3984375e+01
   5.9363281e+01   4.7632812e+01   6.3984375e+01
   5.9007812e+01   4.7277344e+01   6.3984375e+01
   5.8652344e+01   4.7632812e+01   6.3984375e+01
   5.8296875e+01   4.6210938e+01   6.5050781e+01
   5.8296875e+01   4.6566406e+01   6.4695312e+01
   5.8296875e+01   4.6210938e+01   6.4339844e+01
   5.8296875e+01   4.5855469e+01   6.4695312e+01
   5.7585938e+01   4.6921875e+01   6.4339844e+01
   5.7941406e+01   4.6921875e+01   6.4695312e+01
   5.7585938e+01   4.6921875e+01   6.5050781e+01
   5.7230469e+01   4.6921875e+01   6.4695312e+01
   5.7585938e+01   4.6566406e+01   6.5406250e+01
   5.7941406e+01   4.6210938e+01   6.5406250e+01
   5.7585938e+01   4.5855469e+01   6.5406250e+01
   5.7230469e+01   4.6210938e+01   6.5406250e+01
   5.9718750e+01   4.6210938e+01   6.5050781e+01
   5.9718750e+01   4.6566406e+01   6.4695312e+01
   5.9718750e+01   4.6210938e+01   6.4339844e+01
   5.9718750e+01   4.5855469e+01   6.4695312e+01
   5.9007812e+01   4.6921875e+01   6.4339844e+01
   5.9363281e+01   4.6921875e+01   6.4695312e+01
   5.9007812e+01   4.6921875e+01   6.5050781e+01
   5.8652344e+01   4.6921875e+01   6.4695312e+01
   5.9007812e+01   4.6566406e+01   6.5406250e+01
   5.9363281e+01   4.6210938e+01   6.5406250e+01
   5.9007812e+01   4.5855469e+01   6.5406250e+01
   5.8652344e+01   4.6210938e+01   6.5406250e+01
   5.8296875e+01   4.7632812e+01   6.5050781e+01
   5.8296875e+01   4.7988281e+01   6.4695312e+01
   5.8296875e+01   4.7632812e+01   6.4339844e+01
   5.8296875e+01   4.7277344e+01   6.4695312e+01
   5.7585938e+01   4.8343750e+01   6.4339844e+01
   5.7941406e+01   4.8343750e+01   6.4695312e+01
   5.7585938e+01   4.8343750e+01   6.5050781e+01
   5.7230469e+01   4.8343750e+01   6.4695312e+01
   5.7585938e+01   4.7988281e+01   6.5406250e+01
   5.7941406e+01   4.7632812e+01   6.5406250e+01
   5.7585938e+01   4.7277344e+01   6.5406250e+01
   5.7230469e+01   4.7632812e+01   6.5406250e+01
   5.9718750e+01   4.7632812e+01   6.5050781e+01
   5.9718750e+01   4.7988281e+01   6.4695312e+01
   5.9718750e+01   4.7632812e+01   6.4339844e+01
   5.9718750e+01   4.7277344e+01   6.4695312e+01
   5.9007812e+01   4.8343750e+01   6.4339844e+01
   5.9363281e+01   4.8343750e+01   6.4695312e+01
   5.9007812e+01   4.8343750e+01   6.5050781e+01
   5.8652344e+01   4.8343750e+01   6.4695312e+01
   5.9007812e+01   4.7988281e+01   6.5406250e+01
   5.9363281e+01   4.7632812e+01   6.5406250e+01
   5.9007812e+01   4.7277344e+01   6.5406250e+01
   5.8652344e+01   4.7632812e+01   6.5406250e+01
   6.1140625e+01   4.6210938e+01   6.3628906e+01
   6.1140625e+01   4.6566406e+01   6.3273438e+01
   6.1140625e+01   4.6210938e+01   6.2917969e+01
   6.1140625e+01   4.5855469e+01   6.3273438e+01
   6.0429688e+01   4.6921875e+01   6.2917969e+01
   6.0785156e+01   4.6921875e+01   6.3273438e+01
   6.0429688e+01   4.6921875e+01   6.3628906e+01
   6.0074219e+01   4.6921875e+01   6.3273438e+01
   6.0429688e+01   4.6566406e+01   6.3984375e+01
   6.0785156e+01   4.6210938e+01   6.3984375e+01
   6.0429688e+01   4.5855469e+01   6.3984375e+01
   6.0074219e+01   4.6210938e+01   6.3984375e+01
   6.2562500e+01   4.6210938e+01   6.3628906e+01
   6.2562500e+01   4.6566406e+01   6.3273438e+01
   6.2562500e+01   4.6210938e+01   6.2917969e+01
   6.2562500e+01   4.5855469e+01   6.3273438e+01
   6.1851562e+01   4.6921875e+01   6.2917969e+01
   6.2207031e+01   4.6921875e+01   6.3273438e+01
   6.1851562e+01   4.6921875e+01   6.3628906e+01
   6.1496094e+01   4.6921875e+01   6.3273438e+01
   6.1851562e+01   4.6566406e+01   6.3984375e+01
   6.2207031e+01   4.6210938e+01   6.3984375e+01
   6.1851562e+01   4.5855469e+01   6.3984375e+01
   6.1496094e+01   4.6210938e+01   6.3984375e+01
   6.1140625e+01   4.7632812e+01   6.3628906e+01
   6.1140625e+01   4.7988281e+01   6.3273438e+01
   6.1140625e+01   4.7632812e+01   6.2917969e+01
   6.1140625e+01   4.7277344e+01   6.3273438e+01
   6.0429688e+01   4.8343750e+01   6.2917969e+01
   6.0785156e+01   4.8343750e+01   6.3273438e+01
   6.0429688e+01   4.8343750e+01   6.3628906e+01
   6.0074219e+01   4.8343750e+01   6.3273438e+01
   6.0429688e+01   4.7988281e+01   6.3984375e+01
   6.0785156e+01   4.7632812e+01   6.3984375e+01
   6.0429688e+01   4.7277344e+01   6.3984375e+01
   6.0074219e+01   4.7632812e+01   6.3984375e+01
   6.2562500e+01   4.7632812e+01   6.3628906e+01
   6.2562500e+01   4.7988281e+01   6.3273438e+01
   6.2562500e+01   4.7632812e+01   6.2917969e+01
   6.2562500e+01   4.7277344e+01   6.3273438e+01
   6.1851562e+01   4.8343750e+01   6.2917969e+01
   6.2207031e+01   4.8343750e+01   6.3273438e+01
   6.1851562e+01   4.8343750e+01   6.3628906e+01
   6.1496094e+01   4.8343750e+01   6.3273438e+01
   6.1851562e+01   4.7988281e+01   6.3984375e+01
   6.2207031e+01   4.7632812e+01   6.3984375e+01
   6.1851562e+01   4.7277344e+01   6.3984375e+01
   6.1496094e+01   4.7632812e+01   6.3984375e+01
   6.1140625e+01   4.6210938e+01   6.5050781e+01
   6.1140625e+01   4.6566406e+01   6.4695312e+01
   6.1140625e+01   4.6210938e+01   6.4339844e+01
   6.1140625e+01   4.5855469e+01   6.4695312e+01
   6.0429688e+01   4.6921875e+01   6.4339844e+01
   6.0785156e+01   4.6921875e+01   6.4695312e+01
   6.0429688e+01   4.6921875e+01   6.5050781e+01
   6.0074219e+01   4.6921875e+01   6.4695312e+01
   6.0429688e+01   4.6566406e+01   6.5406250e+01
   6.0785156e+01   4.6210938e+01   6.5406250e+01
   6.0429688e+01   4.5855469e+01   6.5406250e+01
   6.0074219e+01   4.6210938e+01   6.5406250e+01
   6.2562500e+01   4.6210938e+01   6.5050781e+01
   6.2562500e+01   4.6566406e+01   6.4695312e+01
   6.2562500e+01   4.6210938e+01   6.4339844e+01
   6.2562500e+01   4.5855469e+01   6.4695312e+01
   6.1851562e+01   4.6921875e+01   6.4339844e+01
   6.2207031e+01   4.6921875e+01   6.4695312e+01
   6.1851562e+01   4.6921875e+01   6.5050781e+01
   6.1496094e+01   4.6921875e+01   6.4695312e+01
   6.1851562e+01   4.6566406e+01   6.5406250e+01
   6.2207031e+01   4.6210938e+01   6.5406250e+01
   6.1851562e+01   4.5855469e+01   6.5406250e+01
   6.1496094e+01   4.6210938e+01   6.5406250e+01
   6.1140625e+01   4.7632812e+01   6.5050781e+01
   6.1140625e+01   4.7988281e+01   6.4695312e+01
   6.1140625e+01   4.7632812e+01   6.4339844e+01
   6.1140625e+01   4.7277344e+01   6.4695312e+01
   6.0429688e+01   4.8343750e+01   6.4339844e+01
   6.0785156e+01   4.8343750e+01   6.4695312e+01
   6.0429688e+01   4.8343750e+01   6.5050781e+01
   6.0074219e+01   4.8343750e+01   6.4695312e+01
   6.0429688e+01   4.7988281e+01   6.5406250e+01
   6.0785156e+01   4.7632812e+01   6.5406250e+01
   6.0429688e+01   4.7277344e+01   6.5406250e+01
   6.0074219e+01   4.7632812e+01   6.5406250e+01
   6.2562500e+01   4.7632812e+01   6.5050781e+01
   6.2562500e+01   4.7988281e+01   6.4695312e+01
   6.2562500e+01   4.7632812e+01   6.4339844e+01
   6.2562500e+01   4.7277344e+01   6.4695312e+01
   6.1851562e+01   4.8343750e+01   6.4339844e+01
   6.2207031e+01   4.8343750e+01   6.4695312e+01
   6.1851562e+01   4.8343750e+01   6.5050781e+01
   6.1496094e+01   4.8343750e+01   6.4695312e+01
   6.1851562e+01   4.7988281e+01   6.5406250e+01
   6.2207031e+01   4.7632812e+01   6.5406250e+01
   6.1851562e+01   4.7277344e+01   6.5406250e+01
   6.1496094e+01   4.7632812e+01   6.5406250e+01
   5.9718750e+01   4.9054688e+01   6.3628906e+01
   5.9718750e+01   4.9410156e+01   6.3273438e+01
   5.9718750e+01   4.8699219e+01   6.3273438e+01
   5.9007812e+01   4.9410156e+01   6.3984375e+01
   5.9363281e+01   4.9054688e+01   6.3984375e+01
   5.9007812e+01   4.8699219e+01   6.3984375e+01
   5.8652344e+01   4.9054688e+01   6.3984375e+01
   5.8296875e+01   4.9054688e+01   6.5050781e+01
   5.8296875e+01   4.9410156e+01   6.4695312e+01
   5.8296875e+01   4.9054688e+01   6.4339844e+01
   5.8296875e+01   4.8699219e+01   6.4695312e+01
   5.7585938e+01   4.9765625e+01   6.5050781e+01
   5.7585938e+01   4.9410156e+01   6.5406250e+01
   5.7941406e+01   4.9054688e+01   6.5406250e+01
   5.7585938e+01   4.8699219e+01   6.5406250e+01
   5.7230469e+01   4.9054688e+01   6.5406250e+01
   5.9718750e+01   4.9054688e+01   6.5050781e+01
   5.9718750e+01   4.9410156e+01   6.4695312e+01
   5.9718750e+01   4.9054688e+01   6.4339844e+01
   5.9718750e+01   4.8699219e+01   6.4695312e+01
   5.9007812e+01   4.9765625e+01   6.4339844e+01
   5.9363281e+01   4.9765625e+01   6.4695312e+01
   5.9007812e+01   4.9765625e+01   6.5050781e+01
   5.8652344e+01   4.9765625e+01   6.4695312e+01
   5.9007812e+01   4.9410156e+01   6.5406250e+01
   5.9363281e+01   4.9054688e+01   6.5406250e+01
   5.9007812e+01   4.8699219e+01   6.5406250e+01
   5.8652344e+01   4.9054688e+01   6.5406250e+01
   5.8296875e+01   5.0476562e+01   6.5050781e+01
   5.8296875e+01   5.0121094e+01   6.4695312e+01
   5.7941406e+01   5.0476562e+01   6.5406250e+01
   5.7585938e+01   5.0121094e+01   6.5406250e+01
   5.9718750e+01   5.0476562e+01   6.5050781e+01
   5.9718750e+01   5.0832031e+01   6.4695312e+01
   5.9718750e+01   5.0476562e+01   6.4339844e+01
   5.9718750e+01   5.0121094e+01   6.4695312e+01
   5.9363281e+01   5.1187500e+01   6.4695312e+01
   5.9007812e+01   5.1187500e+01   6.5050781e+01
   5.9007812e+01   5.0832031e+01   6.5406250e+01
   5.9363281e+01   5.0476562e+01   6.5406250e+01
   5.9007812e+01   5.0121094e+01   6.5406250e+01
   5.8652344e+01   5.0476562e+01   6.5406250e+01
   6.1140625e+01   4.9054688e+01   6.3628906e+01
   6.1140625e+01   4.9410156e+01   6.3273438e+01
   6.1140625e+01   4.9054688e+01   6.2917969e+01
   6.1140625e+01   4.8699219e+01   6.3273438e+01
   6.0429688e+01   4.9765625e+01   6.2917969e+01
   6.0785156e+01   4.9765625e+01   6.3273438e+01
   6.0429688e+01   4.9765625e+01   6.3628906e+01
   6.0074219e+01   4.9765625e+01   6.3273438e+01
   6.0429688e+01   4.9410156e+01   6.3984375e+01
   6.0785156e+01   4.9054688e+01   6.3984375e+01
   6.0429688e+01   4.8699219e+01   6.3984375e+01
   6.0074219e+01   4.9054688e+01   6.3984375e+01
   6.2562500e+01   4.9054688e+01   6.3628906e+01
   6.2562500e+01   4.9410156e+01   6.3273438e+01
   6.2562500e+01   4.9054688e+01   6.2917969e+01
   6.2562500e+01   4.8699219e+01   6.3273438e+01
   6.1851562e+01   4.9765625e+01   6.2917969e+01
   6.2207031e+01   4.9765625e+01   6.3273438e+01
   6.1851562e+01   4.9765625e+01   6.3628906e+01
   6.1496094e+01   4.9765625e+01   6.3273438e+01
   6.1851562e+01   4.9410156e+01   6.3984375e+01
   6.2207031e+01   4.9054688e+01   6.3984375e+01
   6.1851562e+01   4.8699219e+01   6.3984375e+01
   6.1496094e+01   4.9054688e+01   6.3984375e+01
   6.1140625e+01   5.0476562e+01   6.3628906e+01
   6.1140625e+01   5.0832031e+01   6.3273438e+01
   6.1140625e+01   5.0476562e+01   6.2917969e+01
   6.1140625e+01   5.0121094e+01   6.3273438e+01
   6.0785156e+01   5.1187500e+01   6.3273438e+01
   6.0429688e+01   5.1187500e+01   6.3628906e+01
   6.0429688e+01   5.0832031e+01   6.3984375e+01
   6.0785156e+01   5.0476562e+01   6.3984375e+01
   6.0429688e+01   5.0121094e+01   6.3984375e+01
   6.0074219e+01   5.0476562e+01   6.3984375e+01
   6.2562500e+01   5.0476562e+01   6.3628906e+01
   6.2562500e+01   5.0832031e+01   6.3273438e+01
   6.2562500e+01   5.0476562e+01   6.2917969e+01
   6.2562500e+01   5.0121094e+01   6.3273438e+01
   6.1851562e+01   5.1187500e+01   6.2917969e+01
   6.2207031e+01   5.1187500e+01   6.3273438e+01
   6.1851562e+01   5.1187500e+01   6.3628906e+01
   6.1496094e+01   5.1187500e+01   6.3273438e+01
   6.1851562e+01   5.0832031e+01   6.3984375e+01
   6.2207031e+01   5.0476562e+01   6.3984375e+01
   6.1851562e+01   5.0121094e+01   6.3984375e+01
   6.1496094e+01   5.0476562e+01   6.3984375e+01
   6.1140625e+01   4.9054688e+01   6.5050781e+01
   6.1140625e+01   4.9410156e+01   6.4695312e+01
   6.1140625e+01   4.9054688e+01   6.4339844e+01
   6.1140625e+01   4.8699219e+01   6.4695312e+01
   6.0429688e+01   4.9765625e+01   6.4339844e+01
   6.0785156e+01   4.9765625e+01   6.4695312e+01
   6.0429688e+01   4.9765625e+01   6.5050781e+01
   6.0074219e+01   4.9765625e+01   6.4695312e+01
   6.0429688e+01   4.9410156e+01   6.5406250e+01
   6.0785156e+01   4.9054688e+01   6.5406250e+01
   6.0429688e+01   4.8699219e+01   6.5406250e+01
   6.0074219e+01   4.9054688e+01   6.5406250e+01
   6.2562500e+01   4.9054688e+01   6.5050781e+01
   6.2562500e+01   4.9410156e+01   6.4695312e+01
   6.2562500e+01   4.9054688e+01   6.4339844e+01
   6.2562500e+01   4.8699219e+01   6.4695312e+01
   6.1851562e+01   4.9765625e+01   6.4339844e+01
   6.2207031e+01   4.9765625e+01   6.4695312e+01
   6.1851562e+01   4.9765625e+01   6.5050781e+01
   6.1496094e+01   4.9765625e+01   6.4695312e+01
   6.1851562e+01   4.9410156e+01   6.5406250e+01
   6.2207031e+01   4.9054688e+01   6.5406250e+01
   6.1851562e+01   4.8699219e+01   6.5406250e+01
   6.1496094e+01   4.9054688e+01   6.5406250e+01
   6.1140625e+01   5.0476562e+01   6.5050781e+01
   6.1140625e+01   5.0832031e+01   6.4695312e+01
   6.1140625e+01   5.0476562e+01   6.4339844e+01
   6.1140625e+01   5.0121094e+01   6.4695312e+01
   6.0429688e+01   5.1187500e+01   6.4339844e+01
   6.0785156e+01   5.1187500e+01   6.4695312e+01
   6.0429688e+01   5.1187500e+01   6.5050781e+01
   6.0074219e+01   5.1187500e+01   6.4695312e+01
   6.0429688e+01   5.0832031e+01   6.5406250e+01
   6.0785156e+01   5.0476562e+01   6.5406250e+01
   6.0429688e+01   5.0121094e+01   6.5406250e+01
   6.0074219e+01   5.0476562e+01   6.5406250e+01
   6.2562500e+01   5.0476562e+01   6.5050781e+01
   6.2562500e+01   5.0832031e+01   6.4695312e+01
   6.2562500e+01   5.0476562e+01   6.4339844e+01
   6.2562500e+01   5.0121094e+01   6.4695312e+01
   6.1851562e+01   5.1187500e+01   6.4339844e+01
   6.2207031e+01   5.1187500e+01   6.4695312e+01
   6.1851562e+01   5.1187500e+01   6.5050781e+01
   6.1496094e+01   5.1187500e+01   6.4695312e+01
   6.1851562e+01   5.0832031e+01   6.5406250e+01
   6.2207031e+01   5.0476562e+01   6.5406250e+01
   6.1851562e+01   5.0121094e+01   6.5406250e+01
   6.1496094e+01   5.0476562e+01   6.5406250e+01
   5.8296875e+01   4.6210938e+01   6.6472656e+01
   5.8296875e+01   4.6566406e+01   6.6117188e+01
   5.8296875e+01   4.6210938e+01   6.5761719e+01
   5.8296875e+01   4.5855469e+01   6.6117188e+01
   5.7585938e+01   4.6921875e+01   6.5761719e+01
   5.7941406e+01   4.6921875e+01   6.6117188e+01
   5.7585938e+01   4.6921875e+01   6.6472656e+01
   5.7230469e+01   4.6921875e+01   6.6117188e+01
   5.7585938e+01   4.6566406e+01   6.6828125e+01
   5.7941406e+01   4.6210938e+01   6.6828125e+01
   5.7585938e+01   4.5855469e+01   6.6828125e+01
   5.9718750e+01   4.6210938e+01   6.6472656e+01
   5.9718750e+01   4.6566406e+01   6.6117188e+01
   5.9718750e+01   4.6210938e+01   6.5761719e+01
   5.9718750e+01   4.5855469e+01   6.6117188e+01
   5.9007812e+01   4.6921875e+01   6.5761719e+01
   5.9363281e+01   4.6921875e+01   6.6117188e+01
   5.9007812e+01   4.6921875e+01   6.6472656e+01
   5.8652344e+01   4.6921875e+01   6.6117188e+01
   5.9007812e+01   4.6566406e+01   6.6828125e+01
   5.9363281e+01   4.6210938e+01   6.6828125e+01
   5.9007812e+01   4.5855469e+01   6.6828125e+01
   5.8652344e+01   4.6210938e+01   6.6828125e+01
   5.8296875e+01   4.7632812e+01   6.6472656e+01
   5.8296875e+01   4.7988281e+01   6.6117188e+01
   5.8296875e+01   4.7632812e+01   6.5761719e+01
   5.8296875e+01   4.7277344e+01   6.6117188e+01
   5.7585938e+01   4.8343750e+01   6.5761719e+01
   5.7941406e+01   4.8343750e+01   6.6117188e+01
   5.7585938e+01   4.8343750e+01   6.6472656e+01
   5.7230469e+01   4.8343750e+01   6.6117188e+01
   5.7585938e+01   4.7988281e+01   6.6828125e+01
   5.7941406e+01   4.7632812e+01   6.6828125e+01
   5.7585938e+01   4.7277344e+01   6.6828125e+01
   5.7230469e+01   4.7632812e+01   6.6828125e+01
   5.9718750e+01   4.7632812e+01   6.6472656e+01
