   7.0560547e+01   4.4078125e+01   6.4339844e+01
   7.0738281e+01   4.3900391e+01   6.4695312e+01
   7.0916016e+01   4.3722656e+01   6.4695312e+01
   7.0738281e+01   4.3544922e+01   6.4695312e+01
   7.0560547e+01   4.3722656e+01   6.4695312e+01
   7.0382812e+01   4.3011719e+01   6.5228516e+01
   7.0382812e+01   4.3189453e+01   6.5050781e+01
   7.0382812e+01   4.3011719e+01   6.4873047e+01
   7.0382812e+01   4.2833984e+01   6.5050781e+01
   7.0027344e+01   4.3367188e+01   6.4873047e+01
   7.0205078e+01   4.3367188e+01   6.5050781e+01
   7.0027344e+01   4.3367188e+01   6.5228516e+01
   6.9849609e+01   4.3367188e+01   6.5050781e+01
   7.0027344e+01   4.3189453e+01   6.5406250e+01
   7.0205078e+01   4.3011719e+01   6.5406250e+01
   7.0027344e+01   4.2833984e+01   6.5406250e+01
   6.9849609e+01   4.3011719e+01   6.5406250e+01
   7.0990676e+01   4.3046827e+01   6.5193407e+01
   7.1205385e+01   4.3079123e+01   6.4874912e+01
   7.1039518e+01   4.2779752e+01   6.4885844e+01
   7.0738281e+01   4.3367188e+01   6.4873047e+01
   7.0916016e+01   4.3367188e+01   6.5050781e+01
   7.0738281e+01   4.3367188e+01   6.5228516e+01
   7.0560547e+01   4.3367188e+01   6.5050781e+01
   7.0726604e+01   4.3193096e+01   6.5392826e+01
   7.0869229e+01   4.3050470e+01   6.5357718e+01
   7.0780361e+01   4.2872735e+01   6.5357718e+01
   7.0548869e+01   4.3015361e+01   6.5392826e+01
   7.0382812e+01   4.3722656e+01   6.5228516e+01
   7.0382812e+01   4.3900391e+01   6.5050781e+01
   7.0382812e+01   4.3722656e+01   6.4873047e+01
   7.0382812e+01   4.3544922e+01   6.5050781e+01
   7.0027344e+01   4.4078125e+01   6.4873047e+01
   7.0205078e+01   4.4078125e+01   6.5050781e+01
   7.0027344e+01   4.4078125e+01   6.5228516e+01
   6.9849609e+01   4.4078125e+01   6.5050781e+01
   7.0027344e+01   4.3900391e+01   6.5406250e+01
   7.0205078e+01   4.3722656e+01   6.5406250e+01
   7.0027344e+01   4.3544922e+01   6.5406250e+01
   6.9849609e+01   4.3722656e+01   6.5406250e+01
   7.1112375e+01   4.3717190e+01   6.5233980e+01
   7.1112375e+01   4.3894925e+01   6.5056246e+01
   7.1112375e+01   4.3717190e+01   6.4878512e+01
   7.1112375e+01   4.3539456e+01   6.5056246e+01
   7.0738281e+01   4.4078125e+01   6.4873047e+01
   7.0916016e+01   4.4078125e+01   6.5050781e+01
   7.0738281e+01   4.4078125e+01   6.5228516e+01
   7.0560547e+01   4.4078125e+01   6.5050781e+01
   7.0738281e+01   4.3900391e+01   6.5406250e+01
   7.0916016e+01   4.3722656e+01   6.5406250e+01
   7.0738281e+01   4.3544922e+01   6.5406250e+01
   7.0560547e+01   4.3722656e+01   6.5406250e+01
   6.8960938e+01   4.4433594e+01   6.4517578e+01
   6.8960938e+01   4.4611328e+01   6.4339844e+01
   6.8960938e+01   4.4433594e+01   6.4162109e+01
   6.8960938e+01   4.4255859e+01   6.4339844e+01
   6.8605469e+01   4.4789062e+01   6.4162109e+01
   6.8783203e+01   4.4789062e+01   6.4339844e+01
   6.8605469e+01   4.4789062e+01   6.4517578e+01
   6.8427734e+01   4.4789062e+01   6.4339844e+01
   6.8605469e+01   4.4611328e+01   6.4695312e+01
   6.8783203e+01   4.4433594e+01   6.4695312e+01
   6.8605469e+01   4.4255859e+01   6.4695312e+01
   6.8427734e+01   4.4433594e+01   6.4695312e+01
   6.9671875e+01   4.4433594e+01   6.4517578e+01
   6.9671875e+01   4.4611328e+01   6.4339844e+01
   6.9671875e+01   4.4433594e+01   6.4162109e+01
   6.9671875e+01   4.4255859e+01   6.4339844e+01
   6.9316406e+01   4.4789062e+01   6.4162109e+01
   6.9494141e+01   4.4789062e+01   6.4339844e+01
   6.9316406e+01   4.4789062e+01   6.4517578e+01
   6.9138672e+01   4.4789062e+01   6.4339844e+01
   6.9316406e+01   4.4611328e+01   6.4695312e+01
   6.9494141e+01   4.4433594e+01   6.4695312e+01
   6.9316406e+01   4.4255859e+01   6.4695312e+01
   6.9138672e+01   4.4433594e+01   6.4695312e+01
   6.8960938e+01   4.5144531e+01   6.4517578e+01
   6.8960938e+01   4.5322266e+01   6.4339844e+01
   6.8960938e+01   4.5144531e+01   6.4162109e+01
   6.8960938e+01   4.4966797e+01   6.4339844e+01
   6.8605469e+01   4.5500000e+01   6.4162109e+01
   6.8783203e+01   4.5500000e+01   6.4339844e+01
   6.8605469e+01   4.5500000e+01   6.4517578e+01
   6.8427734e+01   4.5500000e+01   6.4339844e+01
   6.8605469e+01   4.5322266e+01   6.4695312e+01
   6.8783203e+01   4.5144531e+01   6.4695312e+01
   6.8605469e+01   4.4966797e+01   6.4695312e+01
   6.8427734e+01   4.5144531e+01   6.4695312e+01
   6.9671875e+01   4.5144531e+01   6.4517578e+01
   6.9671875e+01   4.5322266e+01   6.4339844e+01
   6.9671875e+01   4.5144531e+01   6.4162109e+01
   6.9671875e+01   4.4966797e+01   6.4339844e+01
   6.9316406e+01   4.5500000e+01   6.4162109e+01
   6.9494141e+01   4.5500000e+01   6.4339844e+01
   6.9316406e+01   4.5500000e+01   6.4517578e+01
   6.9138672e+01   4.5500000e+01   6.4339844e+01
   6.9316406e+01   4.5322266e+01   6.4695312e+01
   6.9494141e+01   4.5144531e+01   6.4695312e+01
   6.9316406e+01   4.4966797e+01   6.4695312e+01
   6.9138672e+01   4.5144531e+01   6.4695312e+01
   6.8960938e+01   4.4433594e+01   6.5228516e+01
   6.8960938e+01   4.4611328e+01   6.5050781e+01
   6.8960938e+01   4.4433594e+01   6.4873047e+01
   6.8960938e+01   4.4255859e+01   6.5050781e+01
   6.8605469e+01   4.4789062e+01   6.4873047e+01
   6.8783203e+01   4.4789062e+01   6.5050781e+01
   6.8605469e+01   4.4789062e+01   6.5228516e+01
   6.8427734e+01   4.4789062e+01   6.5050781e+01
   6.8605469e+01   4.4611328e+01   6.5406250e+01
   6.8783203e+01   4.4433594e+01   6.5406250e+01
   6.8605469e+01   4.4255859e+01   6.5406250e+01
   6.8427734e+01   4.4433594e+01   6.5406250e+01
   6.9671875e+01   4.4433594e+01   6.5228516e+01
   6.9671875e+01   4.4611328e+01   6.5050781e+01
   6.9671875e+01   4.4433594e+01   6.4873047e+01
   6.9671875e+01   4.4255859e+01   6.5050781e+01
   6.9316406e+01   4.4789062e+01   6.4873047e+01
   6.9494141e+01   4.4789062e+01   6.5050781e+01
   6.9316406e+01   4.4789062e+01   6.5228516e+01
   6.9138672e+01   4.4789062e+01   6.5050781e+01
   6.9316406e+01   4.4611328e+01   6.5406250e+01
   6.9494141e+01   4.4433594e+01   6.5406250e+01
   6.9316406e+01   4.4255859e+01   6.5406250e+01
   6.9138672e+01   4.4433594e+01   6.5406250e+01
   6.8960938e+01   4.5144531e+01   6.5228516e+01
   6.8960938e+01   4.5322266e+01   6.5050781e+01
   6.8960938e+01   4.5144531e+01   6.4873047e+01
   6.8960938e+01   4.4966797e+01   6.5050781e+01
   6.8605469e+01   4.5500000e+01   6.4873047e+01
   6.8783203e+01   4.5500000e+01   6.5050781e+01
   6.8605469e+01   4.5500000e+01   6.5228516e+01
   6.8427734e+01   4.5500000e+01   6.5050781e+01
   6.8605469e+01   4.5322266e+01   6.5406250e+01
   6.8783203e+01   4.5144531e+01   6.5406250e+01
   6.8605469e+01   4.4966797e+01   6.5406250e+01
   6.8427734e+01   4.5144531e+01   6.5406250e+01
   6.9671875e+01   4.5144531e+01   6.5228516e+01
   6.9671875e+01   4.5322266e+01   6.5050781e+01
   6.9671875e+01   4.5144531e+01   6.4873047e+01
   6.9671875e+01   4.4966797e+01   6.5050781e+01
   6.9316406e+01   4.5500000e+01   6.4873047e+01
   6.9494141e+01   4.5500000e+01   6.5050781e+01
   6.9316406e+01   4.5500000e+01   6.5228516e+01
   6.9138672e+01   4.5500000e+01   6.5050781e+01
   6.9316406e+01   4.5322266e+01   6.5406250e+01
   6.9494141e+01   4.5144531e+01   6.5406250e+01
   6.9316406e+01   4.4966797e+01   6.5406250e+01
   6.9138672e+01   4.5144531e+01   6.5406250e+01
   7.0382812e+01   4.4433594e+01   6.4517578e+01
   7.0382812e+01   4.4611328e+01   6.4339844e+01
   7.0382812e+01   4.4433594e+01   6.4162109e+01
   7.0382812e+01   4.4255859e+01   6.4339844e+01
   7.0027344e+01   4.4789062e+01   6.4162109e+01
   7.0205078e+01   4.4789062e+01   6.4339844e+01
   7.0027344e+01   4.4789062e+01   6.4517578e+01
   6.9849609e+01   4.4789062e+01   6.4339844e+01
   7.0027344e+01   4.4611328e+01   6.4695312e+01
   7.0205078e+01   4.4433594e+01   6.4695312e+01
   7.0027344e+01   4.4255859e+01   6.4695312e+01
   6.9849609e+01   4.4433594e+01   6.4695312e+01
   7.1093750e+01   4.4433594e+01   6.4517578e+01
   7.1093750e+01   4.4611328e+01   6.4339844e+01
   7.1093750e+01   4.4433594e+01   6.4162109e+01
   7.1093750e+01   4.4255859e+01   6.4339844e+01
   7.0738281e+01   4.4789062e+01   6.4162109e+01
   7.0916016e+01   4.4789062e+01   6.4339844e+01
   7.0738281e+01   4.4789062e+01   6.4517578e+01
   7.0560547e+01   4.4789062e+01   6.4339844e+01
   7.0738281e+01   4.4611328e+01   6.4695312e+01
   7.0916016e+01   4.4433594e+01   6.4695312e+01
   7.0738281e+01   4.4255859e+01   6.4695312e+01
   7.0560547e+01   4.4433594e+01   6.4695312e+01
   7.0382812e+01   4.5144531e+01   6.4517578e+01
   7.0382812e+01   4.5322266e+01   6.4339844e+01
   7.0382812e+01   4.5144531e+01   6.4162109e+01
   7.0382812e+01   4.4966797e+01   6.4339844e+01
   7.0027344e+01   4.5500000e+01   6.4162109e+01
   7.0205078e+01   4.5500000e+01   6.4339844e+01
   7.0027344e+01   4.5500000e+01   6.4517578e+01
   6.9849609e+01   4.5500000e+01   6.4339844e+01
   7.0027344e+01   4.5322266e+01   6.4695312e+01
   7.0205078e+01   4.5144531e+01   6.4695312e+01
   7.0027344e+01   4.4966797e+01   6.4695312e+01
   6.9849609e+01   4.5144531e+01   6.4695312e+01
   7.1093750e+01   4.5144531e+01   6.4517578e+01
   7.1093750e+01   4.5322266e+01   6.4339844e+01
   7.1093750e+01   4.5144531e+01   6.4162109e+01
   7.1093750e+01   4.4966797e+01   6.4339844e+01
   7.0738281e+01   4.5500000e+01   6.4162109e+01
   7.0916016e+01   4.5500000e+01   6.4339844e+01
   7.0738281e+01   4.5500000e+01   6.4517578e+01
   7.0560547e+01   4.5500000e+01   6.4339844e+01
   7.0738281e+01   4.5322266e+01   6.4695312e+01
   7.0916016e+01   4.5144531e+01   6.4695312e+01
   7.0738281e+01   4.4966797e+01   6.4695312e+01
   7.0560547e+01   4.5144531e+01   6.4695312e+01
   7.0382812e+01   4.4433594e+01   6.5228516e+01
   7.0382812e+01   4.4611328e+01   6.5050781e+01
   7.0382812e+01   4.4433594e+01   6.4873047e+01
   7.0382812e+01   4.4255859e+01   6.5050781e+01
   7.0027344e+01   4.4789062e+01   6.4873047e+01
   7.0205078e+01   4.4789062e+01   6.5050781e+01
   7.0027344e+01   4.4789062e+01   6.5228516e+01
   6.9849609e+01   4.4789062e+01   6.5050781e+01
   7.0027344e+01   4.4611328e+01   6.5406250e+01
   7.0205078e+01   4.4433594e+01   6.5406250e+01
   7.0027344e+01   4.4255859e+01   6.5406250e+01
   6.9849609e+01   4.4433594e+01   6.5406250e+01
   7.1093750e+01   4.4433594e+01   6.5228516e+01
   7.1093750e+01   4.4611328e+01   6.5050781e+01
   7.1093750e+01   4.4433594e+01   6.4873047e+01
   7.1093750e+01   4.4255859e+01   6.5050781e+01
   7.0738281e+01   4.4789062e+01   6.4873047e+01
   7.0916016e+01   4.4789062e+01   6.5050781e+01
   7.0738281e+01   4.4789062e+01   6.5228516e+01
   7.0560547e+01   4.4789062e+01   6.5050781e+01
   7.0738281e+01   4.4611328e+01   6.5406250e+01
   7.0916016e+01   4.4433594e+01   6.5406250e+01
   7.0738281e+01   4.4255859e+01   6.5406250e+01
   7.0560547e+01   4.4433594e+01   6.5406250e+01
   7.0382812e+01   4.5144531e+01   6.5228516e+01
   7.0382812e+01   4.5322266e+01   6.5050781e+01
   7.0382812e+01   4.5144531e+01   6.4873047e+01
   7.0382812e+01   4.4966797e+01   6.5050781e+01
   7.0027344e+01   4.5500000e+01   6.4873047e+01
   7.0205078e+01   4.5500000e+01   6.5050781e+01
   7.0027344e+01   4.5500000e+01   6.5228516e+01
   6.9849609e+01   4.5500000e+01   6.5050781e+01
   7.0027344e+01   4.5322266e+01   6.5406250e+01
   7.0205078e+01   4.5144531e+01   6.5406250e+01
   7.0027344e+01   4.4966797e+01   6.5406250e+01
   6.9849609e+01   4.5144531e+01   6.5406250e+01
   7.1093750e+01   4.5144531e+01   6.5228516e+01
   7.1093750e+01   4.5322266e+01   6.5050781e+01
   7.1093750e+01   4.5144531e+01   6.4873047e+01
   7.1093750e+01   4.4966797e+01   6.5050781e+01
   7.0738281e+01   4.5500000e+01   6.4873047e+01
   7.0916016e+01   4.5500000e+01   6.5050781e+01
   7.0738281e+01   4.5500000e+01   6.5228516e+01
   7.0560547e+01   4.5500000e+01   6.5050781e+01
   7.0738281e+01   4.5322266e+01   6.5406250e+01
   7.0916016e+01   4.5144531e+01   6.5406250e+01
   7.0738281e+01   4.4966797e+01   6.5406250e+01
   7.0560547e+01   4.5144531e+01   6.5406250e+01
   7.1804688e+01   4.3011719e+01   6.3095703e+01
   7.1449219e+01   4.3367188e+01   6.2740234e+01
   7.1626953e+01   4.3367188e+01   6.2917969e+01
   7.1449219e+01   4.3367188e+01   6.3095703e+01
   7.1271484e+01   4.3367188e+01   6.2917969e+01
   7.1449219e+01   4.3189453e+01   6.3273438e+01
   7.1626953e+01   4.3011719e+01   6.3273438e+01
   7.1449219e+01   4.2833984e+01   6.3273438e+01
   7.1271484e+01   4.3011719e+01   6.3273438e+01
   7.1449219e+01   4.4078125e+01   6.2740234e+01
   7.1626953e+01   4.4078125e+01   6.2917969e+01
   7.1449219e+01   4.4078125e+01   6.3095703e+01
   7.1271484e+01   4.4078125e+01   6.2917969e+01
   7.1449219e+01   4.3900391e+01   6.3273438e+01
   7.1626953e+01   4.3722656e+01   6.3273438e+01
   7.1449219e+01   4.3544922e+01   6.3273438e+01
   7.1271484e+01   4.3722656e+01   6.3273438e+01
   7.1793756e+01   4.3015361e+01   6.3793218e+01
   7.1804688e+01   4.3189453e+01   6.3628906e+01
   7.1804688e+01   4.3011719e+01   6.3451172e+01
   7.1793756e+01   4.2837627e+01   6.3615483e+01
   7.1449219e+01   4.3367188e+01   6.3451172e+01
   7.1626953e+01   4.3367188e+01   6.3628906e+01
   7.1449219e+01   4.3367188e+01   6.3806641e+01
   7.1271484e+01   4.3367188e+01   6.3628906e+01
   7.1449219e+01   4.3189453e+01   6.3984375e+01
   7.1616021e+01   4.3015361e+01   6.3970952e+01
   7.1438287e+01   4.2837627e+01   6.3970952e+01
   7.1271484e+01   4.3011719e+01   6.3984375e+01
   7.1982422e+01   4.3367188e+01   6.3628906e+01
   7.1994965e+01   4.3244875e+01   6.3928953e+01
   7.1916068e+01   4.3070783e+01   6.3915530e+01
   7.1804688e+01   4.3722656e+01   6.3806641e+01
   7.1804688e+01   4.3900391e+01   6.3628906e+01
   7.1804688e+01   4.3722656e+01   6.3451172e+01
   7.1804688e+01   4.3544922e+01   6.3628906e+01
   7.1449219e+01   4.4078125e+01   6.3451172e+01
   7.1626953e+01   4.4078125e+01   6.3628906e+01
   7.1449219e+01   4.4078125e+01   6.3806641e+01
   7.1271484e+01   4.4078125e+01   6.3628906e+01
   7.1449219e+01   4.3900391e+01   6.3984375e+01
   7.1626953e+01   4.3722656e+01   6.3984375e+01
   7.1449219e+01   4.3544922e+01   6.3984375e+01
   7.1271484e+01   4.3722656e+01   6.3984375e+01
   7.2160156e+01   4.4078125e+01   6.3806641e+01
   7.1982422e+01   4.4078125e+01   6.3628906e+01
   7.2142643e+01   4.3905856e+01   6.3978910e+01
   7.2266619e+01   4.3781881e+01   6.3925151e+01
   7.2067982e+01   4.3515279e+01   6.4014019e+01
   7.1964908e+01   4.3728122e+01   6.3978910e+01
   7.1449219e+01   4.4789062e+01   6.2740234e+01
   7.1449219e+01   4.4789062e+01   6.3095703e+01
   7.1271484e+01   4.4789062e+01   6.2917969e+01
   7.1449219e+01   4.4611328e+01   6.3273438e+01
   7.1626953e+01   4.4433594e+01   6.3273438e+01
   7.1449219e+01   4.4255859e+01   6.3273438e+01
   7.1271484e+01   4.4433594e+01   6.3273438e+01
   7.1449219e+01   4.5500000e+01   6.3095703e+01
   7.1271484e+01   4.5500000e+01   6.2917969e+01
   7.1449219e+01   4.5322266e+01   6.3273438e+01
   7.1626953e+01   4.5144531e+01   6.3273438e+01
   7.1449219e+01   4.4966797e+01   6.3273438e+01
   7.1271484e+01   4.5144531e+01   6.3273438e+01
   7.1804688e+01   4.4433594e+01   6.3806641e+01
   7.1804688e+01   4.4611328e+01   6.3628906e+01
   7.1804688e+01   4.4433594e+01   6.3451172e+01
   7.1804688e+01   4.4255859e+01   6.3628906e+01
   7.1449219e+01   4.4789062e+01   6.3451172e+01
   7.1626953e+01   4.4789062e+01   6.3628906e+01
   7.1449219e+01   4.4789062e+01   6.3806641e+01
   7.1271484e+01   4.4789062e+01   6.3628906e+01
   7.1449219e+01   4.4611328e+01   6.3984375e+01
   7.1626953e+01   4.4433594e+01   6.3984375e+01
   7.1449219e+01   4.4255859e+01   6.3984375e+01
   7.1271484e+01   4.4433594e+01   6.3984375e+01
   7.1982422e+01   4.4789062e+01   6.3628906e+01
   7.2160156e+01   4.4611328e+01   6.3984375e+01
   7.2160156e+01   4.4255859e+01   6.3984375e+01
   7.1982422e+01   4.4433594e+01   6.3984375e+01
   7.1804688e+01   4.5144531e+01   6.3806641e+01
   7.1804688e+01   4.5322266e+01   6.3628906e+01
   7.1804688e+01   4.5144531e+01   6.3451172e+01
   7.1804688e+01   4.4966797e+01   6.3628906e+01
   7.1449219e+01   4.5500000e+01   6.3451172e+01
   7.1626953e+01   4.5500000e+01   6.3628906e+01
   7.1449219e+01   4.5500000e+01   6.3806641e+01
   7.1271484e+01   4.5500000e+01   6.3628906e+01
   7.1449219e+01   4.5322266e+01   6.3984375e+01
   7.1626953e+01   4.5144531e+01   6.3984375e+01
   7.1449219e+01   4.4966797e+01   6.3984375e+01
   7.1271484e+01   4.5144531e+01   6.3984375e+01
   7.2160156e+01   4.5322266e+01   6.3984375e+01
   7.2160156e+01   4.4966797e+01   6.3984375e+01
   7.1982422e+01   4.5144531e+01   6.3984375e+01
   7.1603111e+01   4.3033182e+01   6.4426846e+01
   7.1805225e+01   4.3070783e+01   6.4093265e+01
   7.1626814e+01   4.2893725e+01   6.4270324e+01
   7.1449219e+01   4.3367188e+01   6.4162109e+01
   7.1659965e+01   4.3442640e+01   6.4372854e+01
   7.1271484e+01   4.3367188e+01   6.4339844e+01
   7.1368158e+01   4.3222223e+01   6.4751409e+01
   7.1536221e+01   4.3033182e+01   6.4515713e+01
   7.1441412e+01   4.2890082e+01   6.4550349e+01
   7.1217252e+01   4.2957486e+01   6.4641081e+01
   7.1977451e+01   4.3428075e+01   6.4101223e+01
   7.1787174e+01   4.3905856e+01   6.4334379e+01
   7.1787174e+01   4.3728122e+01   6.4156645e+01
   7.1854820e+01   4.3482740e+01   6.4332756e+01
   7.1449219e+01   4.4078125e+01   6.4162109e+01
   7.1626953e+01   4.4078125e+01   6.4339844e+01
   7.1449219e+01   4.4078125e+01   6.4517578e+01
   7.1271484e+01   4.4078125e+01   6.4339844e+01
   7.1467844e+01   4.3894925e+01   6.4700777e+01
   7.1624357e+01   4.3738410e+01   6.4679557e+01
   7.1290109e+01   4.3717190e+01   6.4700777e+01
   7.2142643e+01   4.4083591e+01   6.4156645e+01
   7.1964908e+01   4.4083591e+01   6.4334379e+01
   7.1974256e+01   4.3963399e+01   6.4632305e+01
   7.1907365e+01   4.3854936e+01   6.4632305e+01
   7.1765770e+01   4.3844004e+01   6.4820969e+01
   7.1467844e+01   4.4072659e+01   6.4878512e+01
   7.1612809e+01   4.4105429e+01   6.5023476e+01
   7.1290109e+01   4.4072659e+01   6.5056246e+01
   7.1364770e+01   4.3930033e+01   6.5376605e+01
   7.1255000e+01   4.3752299e+01   6.5376605e+01
   7.1957135e+01   4.4101033e+01   6.4780868e+01
   7.1890244e+01   4.4101033e+01   6.4869735e+01
   7.1804688e+01   4.4433594e+01   6.4517578e+01
   7.1804688e+01   4.4611328e+01   6.4339844e+01
   7.1804688e+01   4.4433594e+01   6.4162109e+01
   7.1804688e+01   4.4255859e+01   6.4339844e+01
   7.1449219e+01   4.4789062e+01   6.4162109e+01
   7.1626953e+01   4.4789062e+01   6.4339844e+01
   7.1449219e+01   4.4789062e+01   6.4517578e+01
   7.1271484e+01   4.4789062e+01   6.4339844e+01
   7.1449219e+01   4.4611328e+01   6.4695312e+01
   7.1626953e+01   4.4433594e+01   6.4695312e+01
   7.1449219e+01   4.4255859e+01   6.4695312e+01
   7.1271484e+01   4.4433594e+01   6.4695312e+01
   7.2332920e+01   4.4494481e+01   6.4456691e+01
   7.2423451e+01   4.4581686e+01   6.4369487e+01
   7.2350434e+01   4.4311281e+01   6.4284422e+01
   7.2160156e+01   4.4789062e+01   6.4162109e+01
   7.2320377e+01   4.4794528e+01   6.4334379e+01
   7.2142643e+01   4.4794528e+01   6.4512113e+01
   7.1982422e+01   4.4789062e+01   6.4339844e+01
   7.2121422e+01   4.4638015e+01   6.4777092e+01
   7.2264955e+01   4.4494481e+01   6.4565156e+01
   7.2048123e+01   4.4187779e+01   6.4694122e+01
   7.1947787e+01   4.4398959e+01   6.4769142e+01
   7.1804688e+01   4.5144531e+01   6.4517578e+01
   7.1804688e+01   4.5322266e+01   6.4339844e+01
   7.1804688e+01   4.5144531e+01   6.4162109e+01
   7.1804688e+01   4.4966797e+01   6.4339844e+01
   7.1449219e+01   4.5500000e+01   6.4162109e+01
   7.1626953e+01   4.5500000e+01   6.4339844e+01
   7.1449219e+01   4.5500000e+01   6.4517578e+01
   7.1271484e+01   4.5500000e+01   6.4339844e+01
   7.1449219e+01   4.5322266e+01   6.4695312e+01
   7.1626953e+01   4.5144531e+01   6.4695312e+01
   7.1449219e+01   4.4966797e+01   6.4695312e+01
   7.1271484e+01   4.5144531e+01   6.4695312e+01
   7.2487180e+01   4.5153640e+01   6.4498689e+01
   7.2160156e+01   4.5500000e+01   6.4162109e+01
   7.2337891e+01   4.5500000e+01   6.4339844e+01
   7.2160156e+01   4.5500000e+01   6.4517578e+01
   7.1982422e+01   4.5500000e+01   6.4339844e+01
   7.2160156e+01   4.5322266e+01   6.4695312e+01
   7.2320377e+01   4.5149997e+01   6.4689848e+01
   7.2142643e+01   4.4972263e+01   6.4689848e+01
   7.1982422e+01   4.5144531e+01   6.4695312e+01
   7.1735305e+01   4.4462720e+01   6.5208898e+01
   7.1924588e+01   4.4628905e+01   6.5042714e+01
   7.1967143e+01   4.4509047e+01   6.4906058e+01
   7.1826150e+01   4.4165127e+01   6.4983375e+01
   7.1449219e+01   4.4789062e+01   6.4873047e+01
   7.1638631e+01   4.4785419e+01   6.5063935e+01
   7.1460896e+01   4.4785419e+01   6.5241669e+01
   7.1271484e+01   4.4789062e+01   6.5050781e+01
   7.1460896e+01   4.4607685e+01   6.5419403e+01
   7.1605861e+01   4.4462720e+01   6.5386633e+01
   7.1526219e+01   4.4288629e+01   6.5373479e+01
   7.1271484e+01   4.4433594e+01   6.5406250e+01
   7.1816365e+01   4.5140888e+01   6.5241669e+01
   7.1804688e+01   4.5322266e+01   6.5050781e+01
   7.1804688e+01   4.5144531e+01   6.4873047e+01
   7.1816365e+01   4.4963153e+01   6.5063935e+01
   7.1449219e+01   4.5500000e+01   6.4873047e+01
   7.1626953e+01   4.5500000e+01   6.5050781e+01
   7.1449219e+01   4.5500000e+01   6.5228516e+01
   7.1271484e+01   4.5500000e+01   6.5050781e+01
   7.1449219e+01   4.5322266e+01   6.5406250e+01
   7.1638631e+01   4.5140888e+01   6.5419403e+01
   7.1460896e+01   4.4963153e+01   6.5419403e+01
   7.1271484e+01   4.5144531e+01   6.5406250e+01
   7.2260533e+01   4.5157945e+01   6.5106638e+01
   7.2328180e+01   4.5268033e+01   6.5065819e+01
   7.2431506e+01   4.5216604e+01   6.4800976e+01
   7.2297252e+01   4.5039909e+01   6.4977670e+01
   7.2160156e+01   4.5500000e+01   6.4873047e+01
   7.1982422e+01   4.5500000e+01   6.5050781e+01
   7.2091717e+01   4.5392009e+01   6.5405776e+01
   7.2216012e+01   4.5157945e+01   6.5173666e+01
   7.2104187e+01   4.5030800e+01   6.5241051e+01
   7.1994100e+01   4.5140888e+01   6.5308697e+01
   7.2620812e+01   4.5512374e+01   6.4752209e+01
   7.2572521e+01   4.5512374e+01   6.4821479e+01
   6.8973361e+01   4.0168903e+01   6.5952986e+01
   6.8973361e+01   4.0346638e+01   6.5775252e+01
   6.8973361e+01   4.0168903e+01   6.5597518e+01
   6.8973361e+01   3.9991169e+01   6.5775252e+01
   6.8605469e+01   4.0523438e+01   6.5583984e+01
   6.8783203e+01   4.0523438e+01   6.5761719e+01
   6.8605469e+01   4.0523438e+01   6.5939453e+01
   6.8427734e+01   4.0523438e+01   6.5761719e+01
   6.8605469e+01   4.0345703e+01   6.6117188e+01
   6.8783203e+01   4.0167969e+01   6.6117188e+01
   6.8605469e+01   3.9990234e+01   6.6117188e+01
   6.8427734e+01   4.0167969e+01   6.6117188e+01
   6.9616652e+01   4.0325418e+01   6.5529872e+01
   6.9328830e+01   4.0524372e+01   6.5597518e+01
   6.9151096e+01   4.0524372e+01   6.5775252e+01
   6.9163479e+01   4.0402220e+01   6.6075139e+01
   6.9095514e+01   4.0224485e+01   6.6075139e+01
   6.8960938e+01   4.0878906e+01   6.5939453e+01
   6.8960938e+01   4.1056641e+01   6.5761719e+01
   6.8960938e+01   4.0878906e+01   6.5583984e+01
   6.8960938e+01   4.0701172e+01   6.5761719e+01
   6.8605469e+01   4.1234375e+01   6.5583984e+01
   6.8783203e+01   4.1234375e+01   6.5761719e+01
   6.8605469e+01   4.1234375e+01   6.5939453e+01
   6.8427734e+01   4.1234375e+01   6.5761719e+01
   6.8605469e+01   4.1056641e+01   6.6117188e+01
   6.8783203e+01   4.0878906e+01   6.6117188e+01
   6.8605469e+01   4.0701172e+01   6.6117188e+01
   6.8427734e+01   4.0878906e+01   6.6117188e+01
   6.9495736e+01   4.0899151e+01   6.5852182e+01
   6.9603252e+01   4.0969368e+01   6.5781963e+01
   6.9670279e+01   4.0947528e+01   6.5582389e+01
   6.9616521e+01   4.0645818e+01   6.5578996e+01
   6.9316406e+01   4.1234375e+01   6.5583984e+01
   6.9138672e+01   4.1234375e+01   6.5761719e+01
   6.9304979e+01   4.1134255e+01   6.6150281e+01
   6.9406869e+01   4.0899151e+01   6.5962889e+01
   6.9207111e+01   4.0631429e+01   6.6117662e+01
   6.9104037e+01   4.0844271e+01   6.6193260e+01
   6.8709373e+01   4.0180263e+01   6.6527391e+01
   6.8954525e+01   4.0223551e+01   6.6239340e+01
   6.8764727e+01   4.0057882e+01   6.6405010e+01
   6.8605469e+01   4.0523438e+01   6.6294922e+01
   6.8782314e+01   4.0591354e+01   6.6471768e+01
   6.8427734e+01   4.0523438e+01   6.6472656e+01
   6.8462137e+01   4.0400167e+01   6.6773660e+01
   6.8660203e+01   4.0180263e+01   6.6576561e+01
   6.8537822e+01   4.0057882e+01   6.6631914e+01
   6.8462137e+01   4.0133565e+01   6.6733963e+01
   6.9116420e+01   4.0544385e+01   6.6204705e+01
   6.8877365e+01   4.0913310e+01   6.6615988e+01
   6.9121475e+01   4.0955399e+01   6.6326895e+01
   6.9054867e+01   4.0666537e+01   6.6346785e+01
   6.8605469e+01   4.1234375e+01   6.6294922e+01
   6.8783203e+01   4.1234375e+01   6.6472656e+01
   6.8605469e+01   4.1234375e+01   6.6650391e+01
   6.8427734e+01   4.1234375e+01   6.6472656e+01
   6.8584248e+01   4.1077860e+01   6.6806904e+01
   6.8748801e+01   4.0913310e+01   6.6744553e+01
   6.8626420e+01   4.0790929e+01   6.6799906e+01
   6.8394221e+01   4.0845393e+01   6.6794611e+01
   6.9771879e+01   4.0535731e+01   6.5460985e+01
   6.9924270e+01   4.1269483e+01   6.5548875e+01
   6.8960938e+01   4.1589844e+01   6.5939453e+01
   6.8960938e+01   4.1767578e+01   6.5761719e+01
   6.8960938e+01   4.1589844e+01   6.5583984e+01
   6.8960938e+01   4.1412109e+01   6.5761719e+01
   6.8605469e+01   4.1945312e+01   6.5583984e+01
   6.8783203e+01   4.1945312e+01   6.5761719e+01
   6.8605469e+01   4.1945312e+01   6.5939453e+01
   6.8427734e+01   4.1945312e+01   6.5761719e+01
   6.8605469e+01   4.1767578e+01   6.6117188e+01
   6.8783203e+01   4.1589844e+01   6.6117188e+01
   6.8605469e+01   4.1412109e+01   6.6117188e+01
   6.8427734e+01   4.1589844e+01   6.6117188e+01
   6.9671875e+01   4.1767578e+01   6.5761719e+01
   6.9671875e+01   4.1589844e+01   6.5583984e+01
   6.9671875e+01   4.1412109e+01   6.5711354e+01
   6.9316406e+01   4.1945312e+01   6.5583984e+01
   6.9494141e+01   4.1945312e+01   6.5761719e+01
   6.9316406e+01   4.1945312e+01   6.5939453e+01
   6.9138672e+01   4.1945312e+01   6.5761719e+01
   6.9328082e+01   4.1763936e+01   6.6130340e+01
   6.9484596e+01   4.1607422e+01   6.6109119e+01
   6.9150348e+01   4.1586201e+01   6.6130340e+01
   6.8960938e+01   4.2300781e+01   6.5939453e+01
   6.8960938e+01   4.2478516e+01   6.5761719e+01
   6.8960938e+01   4.2300781e+01   6.5583984e+01
   6.8960938e+01   4.2123047e+01   6.5761719e+01
   6.8605469e+01   4.2656250e+01   6.5583984e+01
   6.8783203e+01   4.2656250e+01   6.5761719e+01
   6.8605469e+01   4.2656250e+01   6.5939453e+01
   6.8427734e+01   4.2656250e+01   6.5761719e+01
   6.8605469e+01   4.2478516e+01   6.6117188e+01
   6.8783203e+01   4.2300781e+01   6.6117188e+01
   6.8605469e+01   4.2123047e+01   6.6117188e+01
   6.8427734e+01   4.2300781e+01   6.6117188e+01
   6.9671875e+01   4.2300781e+01   6.5939453e+01
   6.9671875e+01   4.2478516e+01   6.5761719e+01
   6.9671875e+01   4.2300781e+01   6.5583984e+01
   6.9671875e+01   4.2123047e+01   6.5761719e+01
   6.9316406e+01   4.2656250e+01   6.5583984e+01
   6.9494141e+01   4.2656250e+01   6.5761719e+01
   6.9316406e+01   4.2656250e+01   6.5939453e+01
   6.9138672e+01   4.2656250e+01   6.5761719e+01
   6.9316406e+01   4.2478516e+01   6.6117188e+01
   6.9494141e+01   4.2300781e+01   6.6117188e+01
   6.9316406e+01   4.2123047e+01   6.6117188e+01
   6.9138672e+01   4.2300781e+01   6.6117188e+01
   6.8972613e+01   4.1586201e+01   6.6663543e+01
   6.8972613e+01   4.1763936e+01   6.6485809e+01
   6.8972613e+01   4.1586201e+01   6.6308074e+01
   6.8972613e+01   4.1408467e+01   6.6485809e+01
   6.8605469e+01   4.1945312e+01   6.6294922e+01
   6.8783203e+01   4.1945312e+01   6.6472656e+01
   6.8605469e+01   4.1945312e+01   6.6650391e+01
   6.8427734e+01   4.1945312e+01   6.6472656e+01
   6.8605469e+01   4.1767578e+01   6.6828125e+01
   6.8783203e+01   4.1589844e+01   6.6828125e+01
   6.8605469e+01   4.1412109e+01   6.6828125e+01
   6.8427734e+01   4.1589844e+01   6.6828125e+01
   6.9615904e+01   4.1742716e+01   6.6240428e+01
   6.9328082e+01   4.1941670e+01   6.6308074e+01
   6.9150348e+01   4.1941670e+01   6.6485809e+01
   6.9184750e+01   4.1818399e+01   6.6786812e+01
   6.9095883e+01   4.1640665e+01   6.6786812e+01
   6.8960938e+01   4.2300781e+01   6.6650391e+01
   6.8960938e+01   4.2478516e+01   6.6472656e+01
   6.8960938e+01   4.2300781e+01   6.6294922e+01
   6.8960938e+01   4.2123047e+01   6.6472656e+01
   6.8605469e+01   4.2656250e+01   6.6294922e+01
   6.8783203e+01   4.2656250e+01   6.6472656e+01
   6.8605469e+01   4.2656250e+01   6.6650391e+01
   6.8427734e+01   4.2656250e+01   6.6472656e+01
   6.8605469e+01   4.2478516e+01   6.6828125e+01
   6.8783203e+01   4.2300781e+01   6.6828125e+01
   6.8605469e+01   4.2123047e+01   6.6828125e+01
   6.8427734e+01   4.2300781e+01   6.6828125e+01
   6.9556377e+01   4.2334955e+01   6.6601748e+01
   6.9647068e+01   4.2421999e+01   6.6514705e+01
   6.9673225e+01   4.2368701e+01   6.6296271e+01
   6.9617643e+01   4.2068814e+01   6.6307717e+01
   6.9316406e+01   4.2656250e+01   6.6294922e+01
   6.9481717e+01   4.2655315e+01   6.6459123e+01
   6.9303982e+01   4.2655315e+01   6.6636857e+01
   6.9138672e+01   4.2656250e+01   6.6472656e+01
   6.9282762e+01   4.2498801e+01   6.6920740e+01
   6.9446607e+01   4.2334955e+01   6.6729117e+01
   6.9247783e+01   4.2035774e+01   6.6848369e+01
   6.9105158e+01   4.2267268e+01   6.6921980e+01
   7.0039209e+01   4.1946247e+01   6.5597518e+01
   6.9849609e+01   4.1945312e+01   6.5761719e+01
   6.9831133e+01   4.1835226e+01   6.6049541e+01
   6.9781963e+01   4.1746358e+01   6.6049541e+01
   7.0182826e+01   4.2321729e+01   6.5849236e+01
   7.0273518e+01   4.2408772e+01   6.5762193e+01
   7.0340920e+01   4.2355475e+01   6.5543760e+01
   7.0229326e+01   4.2179563e+01   6.5719670e+01
   7.0027344e+01   4.2656250e+01   6.5583984e+01
   6.9849609e+01   4.2656250e+01   6.5761719e+01
   6.9944889e+01   4.2511801e+01   6.6172770e+01
   7.0114861e+01   4.2321729e+01   6.5938104e+01
   6.9795377e+01   4.2246549e+01   6.6151822e+01
   7.0583979e+01   4.2713651e+01   6.5516803e+01
   6.9776900e+01   4.1958728e+01   6.6173043e+01
   6.9727730e+01   4.1958728e+01   6.6240070e+01
   6.9944889e+01   4.2689535e+01   6.6261637e+01
   6.9803900e+01   4.2688601e+01   6.6425838e+01
   6.8428623e+01   4.0544388e+01   6.6917881e+01
   6.8339756e+01   4.0544388e+01   6.7006748e+01
   6.8709373e+01   4.1602138e+01   6.7238328e+01
   6.8955643e+01   4.1644308e+01   6.6951395e+01
   6.8764727e+01   4.1479757e+01   6.7115947e+01
   6.8605469e+01   4.1945312e+01   6.7005859e+01
   6.8782314e+01   4.2013229e+01   6.7182705e+01
   6.8427734e+01   4.1945312e+01   6.7183594e+01
   6.8462137e+01   4.1822042e+01   6.7484598e+01
   6.8660203e+01   4.1602138e+01   6.7287498e+01
   6.8537822e+01   4.1479757e+01   6.7342852e+01
   6.8462137e+01   4.1555440e+01   6.7444900e+01
   6.9139561e+01   4.1966263e+01   6.6917881e+01
   6.8877365e+01   4.2335185e+01   6.7326926e+01
   6.9123635e+01   4.2377354e+01   6.7039992e+01
   6.9055988e+01   4.2089533e+01   6.7061213e+01
   6.8605469e+01   4.2656250e+01   6.7005859e+01
   6.8783203e+01   4.2656250e+01   6.7183594e+01
   6.8605469e+01   4.2656250e+01   6.7361328e+01
   6.8427734e+01   4.2656250e+01   6.7183594e+01
   6.8584248e+01   4.2499735e+01   6.7517842e+01
   6.8748801e+01   4.2335185e+01   6.7455490e+01
   6.8626420e+01   4.2212804e+01   6.7510844e+01
   6.8394221e+01   4.2267268e+01   6.7505549e+01
   6.8428623e+01   4.1966263e+01   6.7628818e+01
   6.8339756e+01   4.1966263e+01   6.7720055e+01
   6.8960938e+01   4.3011719e+01   6.5939453e+01
   6.8960938e+01   4.3189453e+01   6.5761719e+01
   6.8960938e+01   4.3011719e+01   6.5583984e+01
   6.8960938e+01   4.2833984e+01   6.5761719e+01
   6.8605469e+01   4.3367188e+01   6.5583984e+01
   6.8783203e+01   4.3367188e+01   6.5761719e+01
   6.8605469e+01   4.3367188e+01   6.5939453e+01
   6.8427734e+01   4.3367188e+01   6.5761719e+01
   6.8605469e+01   4.3189453e+01   6.6117188e+01
   6.8783203e+01   4.3011719e+01   6.6117188e+01
   6.8605469e+01   4.2833984e+01   6.6117188e+01
   6.8427734e+01   4.3011719e+01   6.6117188e+01
   6.9671875e+01   4.3011719e+01   6.5939453e+01
   6.9671875e+01   4.3189453e+01   6.5761719e+01
   6.9671875e+01   4.3011719e+01   6.5583984e+01
   6.9671875e+01   4.2833984e+01   6.5761719e+01
   6.9316406e+01   4.3367188e+01   6.5583984e+01
   6.9494141e+01   4.3367188e+01   6.5761719e+01
   6.9316406e+01   4.3367188e+01   6.5939453e+01
   6.9138672e+01   4.3367188e+01   6.5761719e+01
   6.9316406e+01   4.3189453e+01   6.6117188e+01
   6.9494141e+01   4.3011719e+01   6.6117188e+01
   6.9316406e+01   4.2833984e+01   6.6117188e+01
   6.9138672e+01   4.3011719e+01   6.6117188e+01
   6.8960938e+01   4.3722656e+01   6.5939453e+01
   6.8960938e+01   4.3900391e+01   6.5761719e+01
   6.8960938e+01   4.3722656e+01   6.5583984e+01
   6.8960938e+01   4.3544922e+01   6.5761719e+01
   6.8605469e+01   4.4078125e+01   6.5583984e+01
   6.8783203e+01   4.4078125e+01   6.5761719e+01
   6.8605469e+01   4.4078125e+01   6.5939453e+01
   6.8427734e+01   4.4078125e+01   6.5761719e+01
   6.8605469e+01   4.3900391e+01   6.6117188e+01
   6.8783203e+01   4.3722656e+01   6.6117188e+01
   6.8605469e+01   4.3544922e+01   6.6117188e+01
   6.8427734e+01   4.3722656e+01   6.6117188e+01
   6.9671875e+01   4.3722656e+01   6.5939453e+01
   6.9671875e+01   4.3900391e+01   6.5761719e+01
   6.9671875e+01   4.3722656e+01   6.5583984e+01
   6.9671875e+01   4.3544922e+01   6.5761719e+01
   6.9316406e+01   4.4078125e+01   6.5583984e+01
   6.9494141e+01   4.4078125e+01   6.5761719e+01
   6.9316406e+01   4.4078125e+01   6.5939453e+01
   6.9138672e+01   4.4078125e+01   6.5761719e+01
   6.9316406e+01   4.3900391e+01   6.6117188e+01
   6.9494141e+01   4.3722656e+01   6.6117188e+01
   6.9316406e+01   4.3544922e+01   6.6117188e+01
   6.9138672e+01   4.3722656e+01   6.6117188e+01
   6.8960938e+01   4.3011719e+01   6.6650391e+01
   6.8960938e+01   4.3189453e+01   6.6472656e+01
   6.8960938e+01   4.3011719e+01   6.6294922e+01
   6.8960938e+01   4.2833984e+01   6.6472656e+01
   6.8605469e+01   4.3367188e+01   6.6294922e+01
   6.8783203e+01   4.3367188e+01   6.6472656e+01
   6.8605469e+01   4.3367188e+01   6.6650391e+01
   6.8427734e+01   4.3367188e+01   6.6472656e+01
   6.8605469e+01   4.3189453e+01   6.6828125e+01
   6.8783203e+01   4.3011719e+01   6.6828125e+01
   6.8605469e+01   4.2833984e+01   6.6828125e+01
   6.8427734e+01   4.3011719e+01   6.6828125e+01
   6.9659451e+01   4.3010784e+01   6.6636857e+01
   6.9671875e+01   4.3189453e+01   6.6472656e+01
   6.9671875e+01   4.3011719e+01   6.6294922e+01
   6.9659451e+01   4.2833050e+01   6.6459123e+01
   6.9316406e+01   4.3367188e+01   6.6294922e+01
   6.9494141e+01   4.3367188e+01   6.6472656e+01
   6.9316406e+01   4.3367188e+01   6.6650391e+01
   6.9138672e+01   4.3367188e+01   6.6472656e+01
   6.9316406e+01   4.3189453e+01   6.6828125e+01
   6.9481717e+01   4.3010784e+01   6.6814592e+01
   6.9303982e+01   4.2833050e+01   6.6814592e+01
   6.9138672e+01   4.3011719e+01   6.6828125e+01
   6.8960938e+01   4.3722656e+01   6.6650391e+01
   6.8960938e+01   4.3900391e+01   6.6472656e+01
   6.8960938e+01   4.3722656e+01   6.6294922e+01
   6.8960938e+01   4.3544922e+01   6.6472656e+01
   6.8605469e+01   4.4078125e+01   6.6294922e+01
   6.8783203e+01   4.4078125e+01   6.6472656e+01
   6.8605469e+01   4.4078125e+01   6.6650391e+01
   6.8427734e+01   4.4078125e+01   6.6472656e+01
   6.8605469e+01   4.3900391e+01   6.6828125e+01
   6.8783203e+01   4.3722656e+01   6.6828125e+01
   6.8605469e+01   4.3544922e+01   6.6828125e+01
   6.8427734e+01   4.3722656e+01   6.6828125e+01
   6.9671875e+01   4.3722656e+01   6.6650391e+01
   6.9671875e+01   4.3900391e+01   6.6472656e+01
   6.9671875e+01   4.3722656e+01   6.6294922e+01
   6.9671875e+01   4.3544922e+01   6.6472656e+01
   6.9316406e+01   4.4078125e+01   6.6294922e+01
   6.9494141e+01   4.4078125e+01   6.6472656e+01
   6.9316406e+01   4.4078125e+01   6.6650391e+01
   6.9138672e+01   4.4078125e+01   6.6472656e+01
   6.9316406e+01   4.3900391e+01   6.6828125e+01
   6.9494141e+01   4.3722656e+01   6.6828125e+01
   6.9316406e+01   4.3544922e+01   6.6828125e+01
   6.9138672e+01   4.3722656e+01   6.6828125e+01
   7.0371135e+01   4.3193096e+01   6.5748295e+01
   7.0371135e+01   4.3015361e+01   6.5570561e+01
   7.0371135e+01   4.2837627e+01   6.5681268e+01
   7.0027344e+01   4.3367188e+01   6.5583984e+01
   7.0205078e+01   4.3367188e+01   6.5761719e+01
   7.0027344e+01   4.3367188e+01   6.5939453e+01
   6.9849609e+01   4.3367188e+01   6.5761719e+01
   7.0027344e+01   4.3189453e+01   6.6117188e+01
   7.0272725e+01   4.3032939e+01   6.6184834e+01
   7.0045820e+01   4.2766338e+01   6.6184834e+01
   6.9849609e+01   4.3011719e+01   6.6117188e+01
   7.0726604e+01   4.3370830e+01   6.5570561e+01
   7.0548869e+01   4.3370830e+01   6.5748295e+01
   7.0529514e+01   4.3260743e+01   6.6036117e+01
   7.0481223e+01   4.3171876e+01   6.6036117e+01
   7.0382812e+01   4.3722656e+01   6.5939453e+01
   7.0382812e+01   4.3900391e+01   6.5761719e+01
   7.0382812e+01   4.3722656e+01   6.5583984e+01
   7.0382812e+01   4.3544922e+01   6.5761719e+01
   7.0027344e+01   4.4078125e+01   6.5583984e+01
   7.0205078e+01   4.4078125e+01   6.5761719e+01
   7.0027344e+01   4.4078125e+01   6.5939453e+01
   6.9849609e+01   4.4078125e+01   6.5761719e+01
   7.0027344e+01   4.3900391e+01   6.6117188e+01
   7.0205078e+01   4.3722656e+01   6.6117188e+01
   7.0027344e+01   4.3544922e+01   6.6117188e+01
   6.9849609e+01   4.3722656e+01   6.6117188e+01
   7.0916383e+01   4.3744130e+01   6.5850953e+01
   7.1025127e+01   4.3813118e+01   6.5781963e+01
   7.1058641e+01   4.3757765e+01   6.5548875e+01
   7.0949896e+01   4.3599909e+01   6.5706732e+01
   7.0738281e+01   4.4078125e+01   6.5583984e+01
   7.0560547e+01   4.4078125e+01   6.5761719e+01
   7.0710062e+01   4.3990147e+01   6.6138139e+01
   7.0827516e+01   4.3744130e+01   6.5939820e+01
   7.0587365e+01   4.3455688e+01   6.6095715e+01
   7.0505193e+01   4.3667303e+01   6.6150701e+01
   7.0315166e+01   4.3168233e+01   6.6227275e+01
   7.0027344e+01   4.3367188e+01   6.6294922e+01
   7.0151320e+01   4.3420946e+01   6.6418898e+01
   6.9849609e+01   4.3367188e+01   6.6472656e+01
   6.9861477e+01   4.3245551e+01   6.6772027e+01
   6.9781088e+01   4.3066882e+01   6.6758494e+01
   7.0485838e+01   4.3379481e+01   6.6171922e+01
   7.0228061e+01   4.3780058e+01   6.6583480e+01
   7.0470791e+01   4.3790573e+01   6.6294033e+01
   7.0416326e+01   4.3489568e+01   6.6289934e+01
   7.0027344e+01   4.4078125e+01   6.6294922e+01
   7.0192951e+01   4.4081768e+01   6.6459504e+01
   7.0015217e+01   4.4081768e+01   6.6637238e+01
   6.9849609e+01   4.4078125e+01   6.6472656e+01
   6.9992957e+01   4.3926294e+01   6.6792713e+01
   7.0139193e+01   4.3780058e+01   6.6694187e+01
   7.0041551e+01   4.3598681e+01   6.6707340e+01
   6.9814975e+01   4.3688021e+01   6.6793490e+01
   7.0654709e+01   4.4112528e+01   6.6260520e+01
   7.0514018e+01   4.4116171e+01   6.6425102e+01
   6.8960938e+01   4.4433594e+01   6.5939453e+01
   6.8960938e+01   4.4611328e+01   6.5761719e+01
   6.8960938e+01   4.4433594e+01   6.5583984e+01
   6.8960938e+01   4.4255859e+01   6.5761719e+01
   6.8605469e+01   4.4789062e+01   6.5583984e+01
   6.8783203e+01   4.4789062e+01   6.5761719e+01
   6.8605469e+01   4.4789062e+01   6.5939453e+01
   6.8427734e+01   4.4789062e+01   6.5761719e+01
   6.8605469e+01   4.4611328e+01   6.6117188e+01
   6.8783203e+01   4.4433594e+01   6.6117188e+01
   6.8605469e+01   4.4255859e+01   6.6117188e+01
   6.8427734e+01   4.4433594e+01   6.6117188e+01
   6.9671875e+01   4.4433594e+01   6.5939453e+01
   6.9671875e+01   4.4611328e+01   6.5761719e+01
   6.9671875e+01   4.4433594e+01   6.5583984e+01
   6.9671875e+01   4.4255859e+01   6.5761719e+01
   6.9316406e+01   4.4789062e+01   6.5583984e+01
   6.9494141e+01   4.4789062e+01   6.5761719e+01
   6.9316406e+01   4.4789062e+01   6.5939453e+01
   6.9138672e+01   4.4789062e+01   6.5761719e+01
   6.9316406e+01   4.4611328e+01   6.6117188e+01
   6.9494141e+01   4.4433594e+01   6.6117188e+01
   6.9316406e+01   4.4255859e+01   6.6117188e+01
   6.9138672e+01   4.4433594e+01   6.6117188e+01
   6.8960938e+01   4.5144531e+01   6.5939453e+01
   6.8960938e+01   4.5322266e+01   6.5761719e+01
   6.8960938e+01   4.5144531e+01   6.5583984e+01
   6.8960938e+01   4.4966797e+01   6.5761719e+01
   6.8605469e+01   4.5500000e+01   6.5583984e+01
   6.8783203e+01   4.5500000e+01   6.5761719e+01
   6.8605469e+01   4.5500000e+01   6.5939453e+01
   6.8427734e+01   4.5500000e+01   6.5761719e+01
   6.8605469e+01   4.5322266e+01   6.6117188e+01
   6.8783203e+01   4.5144531e+01   6.6117188e+01
   6.8605469e+01   4.4966797e+01   6.6117188e+01
   6.8427734e+01   4.5144531e+01   6.6117188e+01
   6.9671875e+01   4.5144531e+01   6.5939453e+01
   6.9671875e+01   4.5322266e+01   6.5761719e+01
   6.9671875e+01   4.5144531e+01   6.5583984e+01
   6.9671875e+01   4.4966797e+01   6.5761719e+01
   6.9316406e+01   4.5500000e+01   6.5583984e+01
   6.9494141e+01   4.5500000e+01   6.5761719e+01
   6.9316406e+01   4.5500000e+01   6.5939453e+01
   6.9138672e+01   4.5500000e+01   6.5761719e+01
   6.9316406e+01   4.5322266e+01   6.6117188e+01
   6.9494141e+01   4.5144531e+01   6.6117188e+01
   6.9316406e+01   4.4966797e+01   6.6117188e+01
   6.9138672e+01   4.5144531e+01   6.6117188e+01
   6.8960938e+01   4.4433594e+01   6.6650391e+01
   6.8960938e+01   4.4611328e+01   6.6472656e+01
   6.8960938e+01   4.4433594e+01   6.6294922e+01
   6.8960938e+01   4.4255859e+01   6.6472656e+01
   6.8605469e+01   4.4789062e+01   6.6294922e+01
   6.8783203e+01   4.4789062e+01   6.6472656e+01
   6.8605469e+01   4.4789062e+01   6.6650391e+01
   6.8427734e+01   4.4789062e+01   6.6472656e+01
   6.8605469e+01   4.4611328e+01   6.6828125e+01
   6.8783203e+01   4.4433594e+01   6.6828125e+01
   6.8605469e+01   4.4255859e+01   6.6828125e+01
   6.8427734e+01   4.4433594e+01   6.6828125e+01
   6.9671875e+01   4.4433594e+01   6.6650391e+01
   6.9671875e+01   4.4611328e+01   6.6472656e+01
   6.9671875e+01   4.4433594e+01   6.6294922e+01
   6.9671875e+01   4.4255859e+01   6.6472656e+01
   6.9316406e+01   4.4789062e+01   6.6294922e+01
   6.9494141e+01   4.4789062e+01   6.6472656e+01
   6.9316406e+01   4.4789062e+01   6.6650391e+01
   6.9138672e+01   4.4789062e+01   6.6472656e+01
   6.9316406e+01   4.4611328e+01   6.6828125e+01
   6.9494141e+01   4.4433594e+01   6.6828125e+01
   6.9316406e+01   4.4255859e+01   6.6828125e+01
   6.9138672e+01   4.4433594e+01   6.6828125e+01
   6.8960938e+01   4.5144531e+01   6.6650391e+01
   6.8960938e+01   4.5322266e+01   6.6472656e+01
   6.8960938e+01   4.5144531e+01   6.6294922e+01
   6.8960938e+01   4.4966797e+01   6.6472656e+01
   6.8605469e+01   4.5500000e+01   6.6294922e+01
   6.8783203e+01   4.5500000e+01   6.6472656e+01
   6.8605469e+01   4.5500000e+01   6.6650391e+01
   6.8427734e+01   4.5500000e+01   6.6472656e+01
   6.8605469e+01   4.5322266e+01   6.6828125e+01
   6.8783203e+01   4.5144531e+01   6.6828125e+01
   6.8605469e+01   4.4966797e+01   6.6828125e+01
   6.8427734e+01   4.5144531e+01   6.6828125e+01
   6.9671875e+01   4.5144531e+01   6.6650391e+01
   6.9671875e+01   4.5322266e+01   6.6472656e+01
   6.9671875e+01   4.5144531e+01   6.6294922e+01
   6.9671875e+01   4.4966797e+01   6.6472656e+01
   6.9316406e+01   4.5500000e+01   6.6294922e+01
   6.9494141e+01   4.5500000e+01   6.6472656e+01
   6.9316406e+01   4.5500000e+01   6.6650391e+01
   6.9138672e+01   4.5500000e+01   6.6472656e+01
   6.9316406e+01   4.5322266e+01   6.6828125e+01
   6.9494141e+01   4.5144531e+01   6.6828125e+01
   6.9316406e+01   4.4966797e+01   6.6828125e+01
   6.9138672e+01   4.5144531e+01   6.6828125e+01
   7.0382812e+01   4.4433594e+01   6.5939453e+01
   7.0382812e+01   4.4611328e+01   6.5761719e+01
   7.0382812e+01   4.4433594e+01   6.5583984e+01
   7.0382812e+01   4.4255859e+01   6.5761719e+01
   7.0027344e+01   4.4789062e+01   6.5583984e+01
   7.0205078e+01   4.4789062e+01   6.5761719e+01
   7.0027344e+01   4.4789062e+01   6.5939453e+01
   6.9849609e+01   4.4789062e+01   6.5761719e+01
   7.0027344e+01   4.4611328e+01   6.6117188e+01
   7.0205078e+01   4.4433594e+01   6.6117188e+01
   7.0027344e+01   4.4255859e+01   6.6117188e+01
   6.9849609e+01   4.4433594e+01   6.6117188e+01
   7.1093750e+01   4.4611328e+01   6.5761719e+01
   7.1093750e+01   4.4433594e+01   6.5583984e+01
   7.1093750e+01   4.4255859e+01   6.5711354e+01
   7.0738281e+01   4.4789062e+01   6.5583984e+01
   7.0916016e+01   4.4789062e+01   6.5761719e+01
   7.0738281e+01   4.4789062e+01   6.5939453e+01
   7.0560547e+01   4.4789062e+01   6.5761719e+01
   7.0738281e+01   4.4611328e+01   6.6117188e+01
   7.0983662e+01   4.4454814e+01   6.6184834e+01
   7.0756758e+01   4.4188213e+01   6.6184834e+01
   7.0560547e+01   4.4433594e+01   6.6117188e+01
   7.0382812e+01   4.5144531e+01   6.5939453e+01
   7.0382812e+01   4.5322266e+01   6.5761719e+01
   7.0382812e+01   4.5144531e+01   6.5583984e+01
   7.0382812e+01   4.4966797e+01   6.5761719e+01
   7.0027344e+01   4.5500000e+01   6.5583984e+01
   7.0205078e+01   4.5500000e+01   6.5761719e+01
   7.0027344e+01   4.5500000e+01   6.5939453e+01
   6.9849609e+01   4.5500000e+01   6.5761719e+01
   7.0027344e+01   4.5322266e+01   6.6117188e+01
   7.0205078e+01   4.5144531e+01   6.6117188e+01
   7.0027344e+01   4.4966797e+01   6.6117188e+01
   6.9849609e+01   4.5144531e+01   6.6117188e+01
   7.1093750e+01   4.5144531e+01   6.5939453e+01
   7.1093750e+01   4.5322266e+01   6.5761719e+01
   7.1093750e+01   4.5144531e+01   6.5583984e+01
   7.1093750e+01   4.4966797e+01   6.5761719e+01
   7.0738281e+01   4.5500000e+01   6.5583984e+01
   7.0916016e+01   4.5500000e+01   6.5761719e+01
   7.0738281e+01   4.5500000e+01   6.5939453e+01
   7.0560547e+01   4.5500000e+01   6.5761719e+01
   7.0738281e+01   4.5322266e+01   6.6117188e+01
   7.0916016e+01   4.5144531e+01   6.6117188e+01
   7.0738281e+01   4.4966797e+01   6.6117188e+01
   7.0560547e+01   4.5144531e+01   6.6117188e+01
   7.0370686e+01   4.4437236e+01   6.6637238e+01
   7.0382812e+01   4.4611328e+01   6.6472656e+01
   7.0382812e+01   4.4433594e+01   6.6294922e+01
   7.0370686e+01   4.4259502e+01   6.6459504e+01
   7.0027344e+01   4.4789062e+01   6.6294922e+01
   7.0205078e+01   4.4789062e+01   6.6472656e+01
   7.0027344e+01   4.4789062e+01   6.6650391e+01
   6.9849609e+01   4.4789062e+01   6.6472656e+01
   7.0040004e+01   4.4612162e+01   6.6840449e+01
   7.0205611e+01   4.4438070e+01   6.6827297e+01
   7.0027877e+01   4.4260336e+01   6.6827297e+01
   6.9862270e+01   4.4434428e+01   6.6840449e+01
   7.1026104e+01   4.4678976e+01   6.6276445e+01
   7.1026104e+01   4.4590108e+01   6.6227275e+01
   7.0738281e+01   4.4789062e+01   6.6294922e+01
   7.0560547e+01   4.4789062e+01   6.6472656e+01
   7.0543109e+01   4.4677935e+01   6.6761520e+01
   7.0481812e+01   4.4503843e+01   6.6748367e+01
   7.0382812e+01   4.5144531e+01   6.6650391e+01
   7.0382812e+01   4.5322266e+01   6.6472656e+01
   7.0382812e+01   4.5144531e+01   6.6294922e+01
   7.0382812e+01   4.4966797e+01   6.6472656e+01
   7.0027344e+01   4.5500000e+01   6.6294922e+01
   7.0205078e+01   4.5500000e+01   6.6472656e+01
   7.0027344e+01   4.5500000e+01   6.6650391e+01
   6.9849609e+01   4.5500000e+01   6.6472656e+01
   7.0027344e+01   4.5322266e+01   6.6828125e+01
   7.0205078e+01   4.5144531e+01   6.6828125e+01
   7.0027344e+01   4.4966797e+01   6.6828125e+01
   6.9849609e+01   4.5144531e+01   6.6828125e+01
   7.0916904e+01   4.5165482e+01   6.6562412e+01
   7.0971369e+01   4.5288752e+01   6.6567707e+01
   7.1092861e+01   4.5212448e+01   6.6294033e+01
   7.1038396e+01   4.4911443e+01   6.6288738e+01
   7.0738281e+01   4.5500000e+01   6.6294922e+01
   7.0560547e+01   4.5500000e+01   6.6472656e+01
   7.0710062e+01   4.5412022e+01   6.6849076e+01
   7.0828037e+01   4.5165482e+01   6.6651279e+01
