   6.7005859e+01   3.9812500e+01   6.6472656e+01
   6.7183594e+01   3.9634766e+01   6.6828125e+01
   6.7005859e+01   3.9457031e+01   6.6828125e+01
   6.7894531e+01   3.9812500e+01   6.6294922e+01
   6.7716797e+01   3.9812500e+01   6.6472656e+01
   6.5939453e+01   3.9101562e+01   6.7183594e+01
   6.5761719e+01   3.9101562e+01   6.7361328e+01
   6.6294922e+01   3.9101562e+01   6.7183594e+01
   6.6117188e+01   3.9457031e+01   6.7361328e+01
   6.6117188e+01   3.9634766e+01   6.7183594e+01
   6.6117188e+01   3.9457031e+01   6.7005859e+01
   6.6117188e+01   3.9279297e+01   6.7183594e+01
   6.5761719e+01   3.9812500e+01   6.7005859e+01
   6.5939453e+01   3.9812500e+01   6.7183594e+01
   6.5761719e+01   3.9812500e+01   6.7361328e+01
   6.5583984e+01   3.9812500e+01   6.7183594e+01
   6.5761719e+01   3.9634766e+01   6.7539062e+01
   6.5939453e+01   3.9457031e+01   6.7539062e+01
   6.5761719e+01   3.9279297e+01   6.7539062e+01
   6.5583984e+01   3.9457031e+01   6.7539062e+01
   6.6828125e+01   3.9457031e+01   6.7005859e+01
   6.6472656e+01   3.9812500e+01   6.7005859e+01
   6.6650391e+01   3.9812500e+01   6.7183594e+01
   6.6472656e+01   3.9812500e+01   6.7361328e+01
   6.6294922e+01   3.9812500e+01   6.7183594e+01
   6.5761719e+01   3.9812500e+01   6.7716797e+01
   6.5583984e+01   3.9812500e+01   6.7894531e+01
   6.3806641e+01   4.0167969e+01   6.8250000e+01
   6.5406250e+01   4.0167969e+01   6.7361328e+01
   6.5406250e+01   3.9990234e+01   6.7183594e+01
   6.5050781e+01   4.0345703e+01   6.7539062e+01
   6.5228516e+01   4.0167969e+01   6.7539062e+01
   6.5050781e+01   3.9990234e+01   6.7539062e+01
   6.4873047e+01   4.0167969e+01   6.7539062e+01
   6.4695312e+01   4.0167969e+01   6.8072266e+01
   6.4695312e+01   4.0345703e+01   6.7894531e+01
   6.4695312e+01   4.0167969e+01   6.7716797e+01
   6.4695312e+01   3.9990234e+01   6.7894531e+01
   6.4339844e+01   4.0523438e+01   6.8072266e+01
   6.4339844e+01   4.0345703e+01   6.8250000e+01
   6.4517578e+01   4.0167969e+01   6.8250000e+01
   6.4339844e+01   3.9990234e+01   6.8250000e+01
   6.4162109e+01   4.0167969e+01   6.8250000e+01
   6.5406250e+01   4.0167969e+01   6.8072266e+01
   6.5406250e+01   4.0345703e+01   6.7894531e+01
   6.5406250e+01   4.0167969e+01   6.7716797e+01
   6.5406250e+01   3.9990234e+01   6.7894531e+01
   6.5050781e+01   4.0523438e+01   6.7716797e+01
   6.5228516e+01   4.0523438e+01   6.7894531e+01
   6.5050781e+01   4.0523438e+01   6.8072266e+01
   6.4873047e+01   4.0523438e+01   6.7894531e+01
   6.5050781e+01   4.0345703e+01   6.8250000e+01
   6.5228516e+01   4.0167969e+01   6.8250000e+01
   6.5050781e+01   3.9990234e+01   6.8250000e+01
   6.4873047e+01   4.0167969e+01   6.8250000e+01
   6.4695312e+01   4.0878906e+01   6.8072266e+01
   6.4695312e+01   4.0701172e+01   6.7894531e+01
   6.4339844e+01   4.1056641e+01   6.8250000e+01
   6.4517578e+01   4.0878906e+01   6.8250000e+01
   6.4339844e+01   4.0701172e+01   6.8250000e+01
   6.5406250e+01   4.0878906e+01   6.8072266e+01
   6.5406250e+01   4.1056641e+01   6.7894531e+01
   6.5406250e+01   4.0878906e+01   6.7716797e+01
   6.5406250e+01   4.0701172e+01   6.7894531e+01
   6.5228516e+01   4.1234375e+01   6.7894531e+01
   6.5050781e+01   4.1234375e+01   6.8072266e+01
   6.5050781e+01   4.1056641e+01   6.8250000e+01
   6.5228516e+01   4.0878906e+01   6.8250000e+01
   6.5050781e+01   4.0701172e+01   6.8250000e+01
   6.4873047e+01   4.0878906e+01   6.8250000e+01
   6.5406250e+01   4.1589844e+01   6.8072266e+01
   6.5406250e+01   4.1767578e+01   6.7894531e+01
   6.5406250e+01   4.1412109e+01   6.7894531e+01
   6.5050781e+01   4.1767578e+01   6.8250000e+01
   6.5228516e+01   4.1589844e+01   6.8250000e+01
   6.5050781e+01   4.1412109e+01   6.8250000e+01
   6.4873047e+01   4.1589844e+01   6.8250000e+01
   6.5406250e+01   4.2300781e+01   6.8072266e+01
   6.5228516e+01   4.2300781e+01   6.8250000e+01
   6.5050781e+01   4.2123047e+01   6.8250000e+01
   6.6828125e+01   4.0167969e+01   6.6650391e+01
   6.6828125e+01   4.0345703e+01   6.6472656e+01
   6.6828125e+01   3.9990234e+01   6.6472656e+01
   6.6472656e+01   4.0345703e+01   6.6828125e+01
   6.6650391e+01   4.0167969e+01   6.6828125e+01
   6.6472656e+01   3.9990234e+01   6.6828125e+01
   6.6294922e+01   4.0167969e+01   6.6828125e+01
   6.6828125e+01   4.0878906e+01   6.6650391e+01
   6.6650391e+01   4.0878906e+01   6.6828125e+01
   6.6472656e+01   4.0701172e+01   6.6828125e+01
   6.7539062e+01   4.0167969e+01   6.5939453e+01
   6.7361328e+01   4.0167969e+01   6.6117188e+01
   6.7183594e+01   3.9990234e+01   6.6117188e+01
   6.8250000e+01   4.0167969e+01   6.5939453e+01
   6.8250000e+01   4.0345703e+01   6.5761719e+01
   6.8250000e+01   4.0167969e+01   6.5583984e+01
   6.8250000e+01   3.9990234e+01   6.5761719e+01
   6.8072266e+01   4.0523438e+01   6.5761719e+01
   6.7894531e+01   4.0523438e+01   6.5939453e+01
   6.7894531e+01   4.0345703e+01   6.6117188e+01
   6.8072266e+01   4.0167969e+01   6.6117188e+01
   6.7894531e+01   3.9990234e+01   6.6117188e+01
   6.7716797e+01   4.0167969e+01   6.6117188e+01
   6.8250000e+01   4.0878906e+01   6.5939453e+01
   6.8250000e+01   4.1056641e+01   6.5761719e+01
   6.8250000e+01   4.0701172e+01   6.5761719e+01
   6.7894531e+01   4.1056641e+01   6.6117188e+01
   6.8072266e+01   4.0878906e+01   6.6117188e+01
   6.7894531e+01   4.0701172e+01   6.6117188e+01
   6.7716797e+01   4.0878906e+01   6.6117188e+01
   6.7539062e+01   4.0167969e+01   6.6650391e+01
   6.7539062e+01   4.0345703e+01   6.6472656e+01
   6.7539062e+01   4.0167969e+01   6.6294922e+01
   6.7539062e+01   3.9990234e+01   6.6472656e+01
   6.7183594e+01   4.0523438e+01   6.6294922e+01
   6.7361328e+01   4.0523438e+01   6.6472656e+01
   6.7183594e+01   4.0523438e+01   6.6650391e+01
   6.7005859e+01   4.0523438e+01   6.6472656e+01
   6.7183594e+01   4.0345703e+01   6.6828125e+01
   6.7361328e+01   4.0167969e+01   6.6828125e+01
   6.7183594e+01   3.9990234e+01   6.6828125e+01
   6.7005859e+01   4.0167969e+01   6.6828125e+01
   6.8250000e+01   4.0345703e+01   6.6472656e+01
   6.8250000e+01   4.0167969e+01   6.6294922e+01
   6.7894531e+01   4.0523438e+01   6.6294922e+01
   6.8072266e+01   4.0523438e+01   6.6472656e+01
   6.7894531e+01   4.0523438e+01   6.6650391e+01
   6.7716797e+01   4.0523438e+01   6.6472656e+01
   6.7539062e+01   4.0878906e+01   6.6650391e+01
   6.7539062e+01   4.1056641e+01   6.6472656e+01
   6.7539062e+01   4.0878906e+01   6.6294922e+01
   6.7539062e+01   4.0701172e+01   6.6472656e+01
   6.7361328e+01   4.1234375e+01   6.6472656e+01
   6.7183594e+01   4.1234375e+01   6.6650391e+01
   6.7183594e+01   4.1056641e+01   6.6828125e+01
   6.7361328e+01   4.0878906e+01   6.6828125e+01
   6.7183594e+01   4.0701172e+01   6.6828125e+01
   6.7005859e+01   4.0878906e+01   6.6828125e+01
   6.8250000e+01   4.0878906e+01   6.6650391e+01
   6.8250000e+01   4.1056641e+01   6.6472656e+01
   6.8250000e+01   4.0878906e+01   6.6294922e+01
   6.8250000e+01   4.0701172e+01   6.6472656e+01
   6.7894531e+01   4.1234375e+01   6.6294922e+01
   6.8072266e+01   4.1234375e+01   6.6472656e+01
   6.7894531e+01   4.1234375e+01   6.6650391e+01
   6.7716797e+01   4.1234375e+01   6.6472656e+01
   6.7894531e+01   4.1056641e+01   6.6828125e+01
   6.7894531e+01   4.0701172e+01   6.6828125e+01
   6.7716797e+01   4.0878906e+01   6.6828125e+01
   6.8072266e+01   4.1589844e+01   6.6117188e+01
   6.7894531e+01   4.1412109e+01   6.6117188e+01
   6.7539062e+01   4.1589844e+01   6.6650391e+01
   6.7539062e+01   4.1767578e+01   6.6472656e+01
   6.7539062e+01   4.1412109e+01   6.6472656e+01
   6.7183594e+01   4.1767578e+01   6.6828125e+01
   6.7361328e+01   4.1589844e+01   6.6828125e+01
   6.7183594e+01   4.1412109e+01   6.6828125e+01
   6.7005859e+01   4.1589844e+01   6.6828125e+01
   6.8250000e+01   4.1589844e+01   6.6650391e+01
   6.8250000e+01   4.1767578e+01   6.6472656e+01
   6.8250000e+01   4.1589844e+01   6.6294922e+01
   6.8250000e+01   4.1412109e+01   6.6472656e+01
   6.8072266e+01   4.1945312e+01   6.6472656e+01
   6.7894531e+01   4.1945312e+01   6.6650391e+01
   6.7716797e+01   4.1945312e+01   6.6472656e+01
   6.7894531e+01   4.1767578e+01   6.6828125e+01
   6.8072266e+01   4.1589844e+01   6.6828125e+01
   6.7894531e+01   4.1412109e+01   6.6828125e+01
   6.7716797e+01   4.1589844e+01   6.6828125e+01
   6.7361328e+01   4.2300781e+01   6.6828125e+01
   6.8250000e+01   4.2300781e+01   6.6650391e+01
   6.8250000e+01   4.2478516e+01   6.6472656e+01
   6.8250000e+01   4.2300781e+01   6.6294922e+01
   6.8250000e+01   4.2123047e+01   6.6472656e+01
   6.7894531e+01   4.2656250e+01   6.6650391e+01
   6.7894531e+01   4.2478516e+01   6.6828125e+01
   6.8072266e+01   4.2300781e+01   6.6828125e+01
   6.7894531e+01   4.2123047e+01   6.6828125e+01
   6.7716797e+01   4.2300781e+01   6.6828125e+01
   6.6117188e+01   4.0167969e+01   6.7361328e+01
   6.6117188e+01   4.0345703e+01   6.7183594e+01
   6.6117188e+01   4.0167969e+01   6.7005859e+01
   6.6117188e+01   3.9990234e+01   6.7183594e+01
   6.5939453e+01   4.0523438e+01   6.7183594e+01
   6.5761719e+01   4.0523438e+01   6.7361328e+01
   6.5761719e+01   4.0345703e+01   6.7539062e+01
   6.5939453e+01   4.0167969e+01   6.7539062e+01
   6.5761719e+01   3.9990234e+01   6.7539062e+01
   6.5583984e+01   4.0167969e+01   6.7539062e+01
   6.6828125e+01   4.0345703e+01   6.7183594e+01
   6.6828125e+01   4.0167969e+01   6.7005859e+01
   6.6828125e+01   3.9990234e+01   6.7183594e+01
   6.6472656e+01   4.0523438e+01   6.7005859e+01
   6.6650391e+01   4.0523438e+01   6.7183594e+01
   6.6472656e+01   4.0523438e+01   6.7361328e+01
   6.6294922e+01   4.0523438e+01   6.7183594e+01
   6.6472656e+01   4.0345703e+01   6.7539062e+01
   6.6294922e+01   4.0167969e+01   6.7539062e+01
   6.6117188e+01   4.0878906e+01   6.7361328e+01
   6.6117188e+01   4.1056641e+01   6.7183594e+01
   6.6117188e+01   4.0701172e+01   6.7183594e+01
   6.5761719e+01   4.1056641e+01   6.7539062e+01
   6.5939453e+01   4.0878906e+01   6.7539062e+01
   6.5761719e+01   4.0701172e+01   6.7539062e+01
   6.5583984e+01   4.0878906e+01   6.7539062e+01
   6.6828125e+01   4.0878906e+01   6.7361328e+01
   6.6828125e+01   4.1056641e+01   6.7183594e+01
   6.6828125e+01   4.0878906e+01   6.7005859e+01
   6.6828125e+01   4.0701172e+01   6.7183594e+01
   6.6472656e+01   4.1234375e+01   6.7005859e+01
   6.6650391e+01   4.1234375e+01   6.7183594e+01
   6.6472656e+01   4.1234375e+01   6.7361328e+01
   6.6294922e+01   4.1234375e+01   6.7183594e+01
   6.6472656e+01   4.1056641e+01   6.7539062e+01
   6.6650391e+01   4.0878906e+01   6.7539062e+01
   6.6472656e+01   4.0701172e+01   6.7539062e+01
   6.6294922e+01   4.0878906e+01   6.7539062e+01
   6.6117188e+01   4.0167969e+01   6.7716797e+01
   6.5761719e+01   4.0523438e+01   6.7716797e+01
   6.5939453e+01   4.0523438e+01   6.7894531e+01
   6.5761719e+01   4.0523438e+01   6.8072266e+01
   6.5583984e+01   4.0523438e+01   6.7894531e+01
   6.6117188e+01   4.1056641e+01   6.7894531e+01
   6.6117188e+01   4.0878906e+01   6.7716797e+01
   6.6117188e+01   4.0701172e+01   6.7894531e+01
   6.5761719e+01   4.1234375e+01   6.7716797e+01
   6.5939453e+01   4.1234375e+01   6.7894531e+01
   6.5761719e+01   4.1234375e+01   6.8072266e+01
   6.5583984e+01   4.1234375e+01   6.7894531e+01
   6.5761719e+01   4.1056641e+01   6.8250000e+01
   6.5583984e+01   4.0878906e+01   6.8250000e+01
   6.6472656e+01   4.1234375e+01   6.7716797e+01
   6.6294922e+01   4.1234375e+01   6.7894531e+01
   6.7183594e+01   4.0523438e+01   6.7005859e+01
   6.7005859e+01   4.0523438e+01   6.7183594e+01
   6.7539062e+01   4.1056641e+01   6.7183594e+01
   6.7539062e+01   4.0878906e+01   6.7005859e+01
   6.7183594e+01   4.1234375e+01   6.7005859e+01
   6.7361328e+01   4.1234375e+01   6.7183594e+01
   6.7183594e+01   4.1234375e+01   6.7361328e+01
   6.7005859e+01   4.1234375e+01   6.7183594e+01
   6.7894531e+01   4.1234375e+01   6.7005859e+01
   6.7716797e+01   4.1234375e+01   6.7183594e+01
   6.6117188e+01   4.1589844e+01   6.7361328e+01
   6.5939453e+01   4.1589844e+01   6.7539062e+01
   6.5761719e+01   4.1412109e+01   6.7539062e+01
   6.6828125e+01   4.1589844e+01   6.7361328e+01
   6.6828125e+01   4.1767578e+01   6.7183594e+01
   6.6828125e+01   4.1589844e+01   6.7005859e+01
   6.6828125e+01   4.1412109e+01   6.7183594e+01
   6.6650391e+01   4.1945312e+01   6.7183594e+01
   6.6472656e+01   4.1945312e+01   6.7361328e+01
   6.6472656e+01   4.1767578e+01   6.7539062e+01
   6.6650391e+01   4.1589844e+01   6.7539062e+01
   6.6472656e+01   4.1412109e+01   6.7539062e+01
   6.6294922e+01   4.1589844e+01   6.7539062e+01
   6.6828125e+01   4.2300781e+01   6.7361328e+01
   6.6828125e+01   4.2123047e+01   6.7183594e+01
   6.6472656e+01   4.2478516e+01   6.7539062e+01
   6.6650391e+01   4.2300781e+01   6.7539062e+01
   6.6472656e+01   4.2123047e+01   6.7539062e+01
   6.6294922e+01   4.2300781e+01   6.7539062e+01
   6.6117188e+01   4.1589844e+01   6.8072266e+01
   6.6117188e+01   4.1767578e+01   6.7894531e+01
   6.6117188e+01   4.1589844e+01   6.7716797e+01
   6.6117188e+01   4.1412109e+01   6.7894531e+01
   6.5761719e+01   4.1945312e+01   6.7716797e+01
   6.5939453e+01   4.1945312e+01   6.7894531e+01
   6.5761719e+01   4.1945312e+01   6.8072266e+01
   6.5583984e+01   4.1945312e+01   6.7894531e+01
   6.5761719e+01   4.1767578e+01   6.8250000e+01
   6.5939453e+01   4.1589844e+01   6.8250000e+01
   6.5761719e+01   4.1412109e+01   6.8250000e+01
   6.5583984e+01   4.1589844e+01   6.8250000e+01
   6.6828125e+01   4.1767578e+01   6.7894531e+01
   6.6828125e+01   4.1589844e+01   6.7716797e+01
   6.6472656e+01   4.1945312e+01   6.7716797e+01
   6.6650391e+01   4.1945312e+01   6.7894531e+01
   6.6472656e+01   4.1945312e+01   6.8072266e+01
   6.6294922e+01   4.1945312e+01   6.7894531e+01
   6.6117188e+01   4.2300781e+01   6.8072266e+01
   6.6117188e+01   4.2478516e+01   6.7894531e+01
   6.6117188e+01   4.2300781e+01   6.7716797e+01
   6.6117188e+01   4.2123047e+01   6.7894531e+01
   6.5939453e+01   4.2656250e+01   6.7894531e+01
   6.5761719e+01   4.2656250e+01   6.8072266e+01
   6.5761719e+01   4.2478516e+01   6.8250000e+01
   6.5939453e+01   4.2300781e+01   6.8250000e+01
   6.5761719e+01   4.2123047e+01   6.8250000e+01
   6.5583984e+01   4.2300781e+01   6.8250000e+01
   6.6828125e+01   4.2300781e+01   6.8072266e+01
   6.6828125e+01   4.2478516e+01   6.7894531e+01
   6.6828125e+01   4.2300781e+01   6.7716797e+01
   6.6828125e+01   4.2123047e+01   6.7894531e+01
   6.6472656e+01   4.2656250e+01   6.7716797e+01
   6.6650391e+01   4.2656250e+01   6.7894531e+01
   6.6472656e+01   4.2656250e+01   6.8072266e+01
   6.6294922e+01   4.2656250e+01   6.7894531e+01
   6.6472656e+01   4.2478516e+01   6.8250000e+01
   6.6650391e+01   4.2300781e+01   6.8250000e+01
   6.6472656e+01   4.2123047e+01   6.8250000e+01
   6.6294922e+01   4.2300781e+01   6.8250000e+01
   6.7539062e+01   4.1589844e+01   6.7361328e+01
   6.7539062e+01   4.1767578e+01   6.7183594e+01
   6.7539062e+01   4.1589844e+01   6.7005859e+01
   6.7539062e+01   4.1412109e+01   6.7183594e+01
   6.7183594e+01   4.1945312e+01   6.7005859e+01
   6.7361328e+01   4.1945312e+01   6.7183594e+01
   6.7183594e+01   4.1945312e+01   6.7361328e+01
   6.7005859e+01   4.1945312e+01   6.7183594e+01
   6.7183594e+01   4.1767578e+01   6.7539062e+01
   6.7361328e+01   4.1589844e+01   6.7539062e+01
   6.7183594e+01   4.1412109e+01   6.7539062e+01
   6.7005859e+01   4.1589844e+01   6.7539062e+01
   6.7894531e+01   4.1945312e+01   6.7005859e+01
   6.8072266e+01   4.1945312e+01   6.7183594e+01
   6.7716797e+01   4.1945312e+01   6.7183594e+01
   6.7539062e+01   4.2300781e+01   6.7361328e+01
   6.7539062e+01   4.2478516e+01   6.7183594e+01
   6.7539062e+01   4.2300781e+01   6.7005859e+01
   6.7539062e+01   4.2123047e+01   6.7183594e+01
   6.7361328e+01   4.2656250e+01   6.7183594e+01
   6.7183594e+01   4.2656250e+01   6.7361328e+01
   6.7005859e+01   4.2656250e+01   6.7183594e+01
   6.7183594e+01   4.2478516e+01   6.7539062e+01
   6.7361328e+01   4.2300781e+01   6.7539062e+01
   6.7183594e+01   4.2123047e+01   6.7539062e+01
   6.7005859e+01   4.2300781e+01   6.7539062e+01
   6.8250000e+01   4.2478516e+01   6.7183594e+01
   6.8250000e+01   4.2300781e+01   6.7005859e+01
   6.8250000e+01   4.2123047e+01   6.7183594e+01
   6.7894531e+01   4.2656250e+01   6.7005859e+01
   6.8072266e+01   4.2656250e+01   6.7183594e+01
   6.7894531e+01   4.2656250e+01   6.7361328e+01
   6.7716797e+01   4.2656250e+01   6.7183594e+01
   6.7894531e+01   4.2478516e+01   6.7539062e+01
   6.7716797e+01   4.2300781e+01   6.7539062e+01
   6.7183594e+01   4.1945312e+01   6.7716797e+01
   6.7005859e+01   4.1945312e+01   6.7894531e+01
   6.7183594e+01   4.2656250e+01   6.7716797e+01
   6.7361328e+01   4.2656250e+01   6.7894531e+01
   6.7005859e+01   4.2656250e+01   6.7894531e+01
   6.8250000e+01   4.3011719e+01   6.6650391e+01
   6.8250000e+01   4.2833984e+01   6.6472656e+01
   6.7894531e+01   4.3189453e+01   6.6828125e+01
   6.8072266e+01   4.3011719e+01   6.6828125e+01
   6.7894531e+01   4.2833984e+01   6.6828125e+01
   6.6650391e+01   4.3011719e+01   6.7539062e+01
   6.6117188e+01   4.3011719e+01   6.8072266e+01
   6.6117188e+01   4.2833984e+01   6.7894531e+01
   6.5761719e+01   4.3189453e+01   6.8250000e+01
   6.5939453e+01   4.3011719e+01   6.8250000e+01
   6.5761719e+01   4.2833984e+01   6.8250000e+01
   6.5583984e+01   4.3011719e+01   6.8250000e+01
   6.6828125e+01   4.3011719e+01   6.8072266e+01
   6.6828125e+01   4.3189453e+01   6.7894531e+01
   6.6828125e+01   4.3011719e+01   6.7716797e+01
   6.6828125e+01   4.2833984e+01   6.7894531e+01
   6.6650391e+01   4.3367188e+01   6.7894531e+01
   6.6472656e+01   4.3367188e+01   6.8072266e+01
   6.6294922e+01   4.3367188e+01   6.7894531e+01
   6.6472656e+01   4.3189453e+01   6.8250000e+01
   6.6650391e+01   4.3011719e+01   6.8250000e+01
   6.6472656e+01   4.2833984e+01   6.8250000e+01
   6.6294922e+01   4.3011719e+01   6.8250000e+01
   6.5939453e+01   4.3722656e+01   6.8250000e+01
   6.6828125e+01   4.3722656e+01   6.8072266e+01
   6.6828125e+01   4.3900391e+01   6.7894531e+01
   6.6828125e+01   4.3722656e+01   6.7716797e+01
   6.6828125e+01   4.3544922e+01   6.7894531e+01
   6.6472656e+01   4.4078125e+01   6.8072266e+01
   6.6472656e+01   4.3900391e+01   6.8250000e+01
   6.6650391e+01   4.3722656e+01   6.8250000e+01
   6.6472656e+01   4.3544922e+01   6.8250000e+01
   6.6294922e+01   4.3722656e+01   6.8250000e+01
   6.7539062e+01   4.3011719e+01   6.7361328e+01
   6.7539062e+01   4.3189453e+01   6.7183594e+01
   6.7539062e+01   4.3011719e+01   6.7005859e+01
   6.7539062e+01   4.2833984e+01   6.7183594e+01
   6.7183594e+01   4.3367188e+01   6.7361328e+01
   6.7183594e+01   4.3189453e+01   6.7539062e+01
   6.7361328e+01   4.3011719e+01   6.7539062e+01
   6.7183594e+01   4.2833984e+01   6.7539062e+01
   6.7005859e+01   4.3011719e+01   6.7539062e+01
   6.8250000e+01   4.3011719e+01   6.7361328e+01
   6.8250000e+01   4.3189453e+01   6.7183594e+01
   6.8250000e+01   4.3011719e+01   6.7005859e+01
   6.8250000e+01   4.2833984e+01   6.7183594e+01
   6.7894531e+01   4.3367188e+01   6.7005859e+01
   6.8072266e+01   4.3367188e+01   6.7183594e+01
   6.7894531e+01   4.3367188e+01   6.7361328e+01
   6.7716797e+01   4.3367188e+01   6.7183594e+01
   6.7894531e+01   4.3189453e+01   6.7539062e+01
   6.8072266e+01   4.3011719e+01   6.7539062e+01
   6.7894531e+01   4.2833984e+01   6.7539062e+01
   6.7716797e+01   4.3011719e+01   6.7539062e+01
   6.7539062e+01   4.3722656e+01   6.7361328e+01
   6.7539062e+01   4.3544922e+01   6.7183594e+01
   6.7183594e+01   4.3900391e+01   6.7539062e+01
   6.7361328e+01   4.3722656e+01   6.7539062e+01
   6.7183594e+01   4.3544922e+01   6.7539062e+01
   6.8250000e+01   4.3722656e+01   6.7361328e+01
   6.8250000e+01   4.3900391e+01   6.7183594e+01
   6.8250000e+01   4.3722656e+01   6.7005859e+01
   6.8250000e+01   4.3544922e+01   6.7183594e+01
   6.8072266e+01   4.4078125e+01   6.7183594e+01
   6.7894531e+01   4.4078125e+01   6.7361328e+01
   6.7894531e+01   4.3900391e+01   6.7539062e+01
   6.8072266e+01   4.3722656e+01   6.7539062e+01
   6.7894531e+01   4.3544922e+01   6.7539062e+01
   6.7716797e+01   4.3722656e+01   6.7539062e+01
   6.7539062e+01   4.3189453e+01   6.7894531e+01
   6.7539062e+01   4.3011719e+01   6.7716797e+01
   6.7539062e+01   4.2833984e+01   6.7894531e+01
   6.7183594e+01   4.3367188e+01   6.7716797e+01
   6.7361328e+01   4.3367188e+01   6.7894531e+01
   6.7183594e+01   4.3367188e+01   6.8072266e+01
   6.7005859e+01   4.3367188e+01   6.7894531e+01
   6.7183594e+01   4.3189453e+01   6.8250000e+01
   6.7005859e+01   4.3011719e+01   6.8250000e+01
   6.7894531e+01   4.3367188e+01   6.7716797e+01
   6.7716797e+01   4.3367188e+01   6.7894531e+01
   6.7539062e+01   4.3722656e+01   6.8072266e+01
   6.7539062e+01   4.3900391e+01   6.7894531e+01
   6.7539062e+01   4.3722656e+01   6.7716797e+01
   6.7539062e+01   4.3544922e+01   6.7894531e+01
   6.7183594e+01   4.4078125e+01   6.7716797e+01
   6.7361328e+01   4.4078125e+01   6.7894531e+01
   6.7183594e+01   4.4078125e+01   6.8072266e+01
   6.7005859e+01   4.4078125e+01   6.7894531e+01
   6.7183594e+01   4.3900391e+01   6.8250000e+01
   6.7361328e+01   4.3722656e+01   6.8250000e+01
   6.7183594e+01   4.3544922e+01   6.8250000e+01
   6.7005859e+01   4.3722656e+01   6.8250000e+01
   6.8250000e+01   4.3722656e+01   6.7716797e+01
   6.7894531e+01   4.4078125e+01   6.7716797e+01
   6.8072266e+01   4.4078125e+01   6.7894531e+01
   6.7894531e+01   4.4078125e+01   6.8072266e+01
   6.7716797e+01   4.4078125e+01   6.7894531e+01
   6.6828125e+01   4.4433594e+01   6.8072266e+01
   6.6828125e+01   4.4255859e+01   6.7894531e+01
   6.6472656e+01   4.4611328e+01   6.8250000e+01
   6.6650391e+01   4.4433594e+01   6.8250000e+01
   6.6472656e+01   4.4255859e+01   6.8250000e+01
   6.8250000e+01   4.4433594e+01   6.7361328e+01
   6.8250000e+01   4.4611328e+01   6.7183594e+01
   6.8250000e+01   4.4255859e+01   6.7183594e+01
   6.7894531e+01   4.4611328e+01   6.7539062e+01
   6.8072266e+01   4.4433594e+01   6.7539062e+01
   6.7894531e+01   4.4255859e+01   6.7539062e+01
   6.7716797e+01   4.4433594e+01   6.7539062e+01
   6.8250000e+01   4.5144531e+01   6.7361328e+01
   6.8072266e+01   4.5144531e+01   6.7539062e+01
   6.7894531e+01   4.4966797e+01   6.7539062e+01
   6.7539062e+01   4.4433594e+01   6.8072266e+01
   6.7539062e+01   4.4611328e+01   6.7894531e+01
   6.7539062e+01   4.4433594e+01   6.7716797e+01
   6.7539062e+01   4.4255859e+01   6.7894531e+01
   6.7361328e+01   4.4789062e+01   6.7894531e+01
   6.7183594e+01   4.4789062e+01   6.8072266e+01
   6.7183594e+01   4.4611328e+01   6.8250000e+01
   6.7361328e+01   4.4433594e+01   6.8250000e+01
   6.7183594e+01   4.4255859e+01   6.8250000e+01
   6.7005859e+01   4.4433594e+01   6.8250000e+01
   6.8250000e+01   4.4433594e+01   6.8072266e+01
   6.8250000e+01   4.4611328e+01   6.7894531e+01
   6.8250000e+01   4.4433594e+01   6.7716797e+01
   6.8250000e+01   4.4255859e+01   6.7894531e+01
   6.7894531e+01   4.4789062e+01   6.7716797e+01
   6.8072266e+01   4.4789062e+01   6.7894531e+01
   6.7894531e+01   4.4789062e+01   6.8072266e+01
   6.7716797e+01   4.4789062e+01   6.7894531e+01
   6.7894531e+01   4.4611328e+01   6.8250000e+01
   6.7716797e+01   4.4433594e+01   6.8250000e+01
   6.7539062e+01   4.5144531e+01   6.8072266e+01
   6.7539062e+01   4.5322266e+01   6.7894531e+01
   6.7539062e+01   4.4966797e+01   6.7894531e+01
   6.7183594e+01   4.5322266e+01   6.8250000e+01
   6.7361328e+01   4.5144531e+01   6.8250000e+01
   6.7183594e+01   4.4966797e+01   6.8250000e+01
   6.7005859e+01   4.5144531e+01   6.8250000e+01
   6.8250000e+01   4.5144531e+01   6.8072266e+01
   6.8250000e+01   4.5322266e+01   6.7894531e+01
   6.8250000e+01   4.5144531e+01   6.7716797e+01
   6.8250000e+01   4.4966797e+01   6.7894531e+01
   6.7894531e+01   4.5500000e+01   6.7716797e+01
   6.8072266e+01   4.5500000e+01   6.7894531e+01
   6.7894531e+01   4.5500000e+01   6.8072266e+01
   6.7716797e+01   4.5500000e+01   6.7894531e+01
   6.7894531e+01   4.5322266e+01   6.8250000e+01
   6.8072266e+01   4.5144531e+01   6.8250000e+01
   6.7894531e+01   4.4966797e+01   6.8250000e+01
   6.7716797e+01   4.5144531e+01   6.8250000e+01
   7.0708941e+01   3.9723401e+01   6.4004204e+01
   6.9316406e+01   3.9634766e+01   6.4695312e+01
   6.8960938e+01   3.9634766e+01   6.5050781e+01
   6.8783203e+01   3.9812500e+01   6.5050781e+01
   6.8605469e+01   3.9812500e+01   6.5228516e+01
   6.8605469e+01   3.9634766e+01   6.5406250e+01
   6.8783203e+01   3.9457031e+01   6.5406250e+01
   6.8427734e+01   3.9457031e+01   6.5406250e+01
   6.9543617e+01   3.9466957e+01   6.5168225e+01
   6.9578727e+01   3.9609583e+01   6.5154163e+01
   6.9673225e+01   3.9524951e+01   6.4874397e+01
   6.9316406e+01   3.9812500e+01   6.4873047e+01
   6.9138672e+01   3.9812500e+01   6.5050781e+01
   6.9313309e+01   3.9720711e+01   6.5447675e+01
   6.9433848e+01   3.9466957e+01   6.5295594e+01
   6.9105158e+01   3.9423518e+01   6.5500105e+01
   7.0027344e+01   3.9812500e+01   6.4162109e+01
   6.9849609e+01   3.9812500e+01   6.4339844e+01
   6.9944889e+01   3.9668051e+01   6.4753264e+01
   7.0630123e+01   3.9822318e+01   6.4103120e+01
   7.0501559e+01   3.9822318e+01   6.4231685e+01
   6.9944889e+01   3.9845785e+01   6.4839762e+01
   6.9816324e+01   3.9845785e+01   6.4968326e+01
   7.1184213e+01   3.9832745e+01   6.3474604e+01
   6.9122596e+01   3.9534646e+01   6.5617078e+01
   6.8605469e+01   3.9812500e+01   6.5583984e+01
   6.8783203e+01   3.9812500e+01   6.5761719e+01
   6.8605469e+01   3.9812500e+01   6.5939453e+01
   6.8427734e+01   3.9812500e+01   6.5761719e+01
   7.1013846e+01   4.0190094e+01   6.3771547e+01
   7.0705061e+01   4.0366414e+01   6.4083161e+01
   7.0881381e+01   4.0190094e+01   6.3904013e+01
   7.0844211e+01   4.0012869e+01   6.3916472e+01
   7.0535961e+01   4.0143384e+01   6.3959789e+01
   6.9671875e+01   4.0167969e+01   6.4517578e+01
   6.9494141e+01   4.0167969e+01   6.4695312e+01
   6.9316406e+01   3.9990234e+01   6.4695312e+01
   6.8960938e+01   4.0167969e+01   6.5228516e+01
   6.8960938e+01   4.0345703e+01   6.5050781e+01
   6.8960938e+01   3.9990234e+01   6.5050781e+01
   6.8605469e+01   4.0345703e+01   6.5406250e+01
   6.8783203e+01   4.0167969e+01   6.5406250e+01
   6.8605469e+01   3.9990234e+01   6.5406250e+01
   6.8427734e+01   4.0167969e+01   6.5406250e+01
   6.9739521e+01   4.0189189e+01   6.5296161e+01
   6.9671875e+01   4.0345703e+01   6.5050781e+01
   6.9671875e+01   4.0167969e+01   6.4873047e+01
   6.9671875e+01   3.9990234e+01   6.5001611e+01
   6.9316406e+01   4.0523438e+01   6.4873047e+01
   6.9494141e+01   4.0523438e+01   6.5050781e+01
   6.9316406e+01   4.0523438e+01   6.5228516e+01
   6.9138672e+01   4.0523438e+01   6.5050781e+01
   6.9328830e+01   4.0346638e+01   6.5419783e+01
   6.9485344e+01   4.0190124e+01   6.5398562e+01
   6.9151096e+01   4.0168903e+01   6.5419783e+01
   6.8960938e+01   4.0878906e+01   6.5228516e+01
   6.8783203e+01   4.0878906e+01   6.5406250e+01
   6.8605469e+01   4.0701172e+01   6.5406250e+01
   6.9671875e+01   4.0878906e+01   6.5228516e+01
   6.9671875e+01   4.1056641e+01   6.5050781e+01
   6.9671875e+01   4.0878906e+01   6.4873047e+01
   6.9671875e+01   4.0701172e+01   6.5050781e+01
   6.9494141e+01   4.1234375e+01   6.5050781e+01
   6.9316406e+01   4.1234375e+01   6.5228516e+01
   6.9316406e+01   4.1056641e+01   6.5406250e+01
   6.9494141e+01   4.0878906e+01   6.5406250e+01
   6.9316406e+01   4.0701172e+01   6.5406250e+01
   6.9138672e+01   4.0878906e+01   6.5406250e+01
   7.0328355e+01   4.0191063e+01   6.4508101e+01
   7.0507129e+01   4.0367758e+01   6.4331406e+01
   7.0559086e+01   4.0253472e+01   6.4205170e+01
   7.0358227e+01   3.9965649e+01   6.4266088e+01
   7.0217402e+01   4.0524271e+01   6.4352627e+01
   7.0039668e+01   4.0524271e+01   6.4530361e+01
   7.0039668e+01   4.0346537e+01   6.4708096e+01
   7.0195143e+01   4.0191063e+01   6.4685835e+01
   7.0133648e+01   4.0012495e+01   6.4673052e+01
   6.9849609e+01   4.0167969e+01   6.4695312e+01
   7.0395137e+01   4.0879740e+01   6.4530361e+01
   7.0395137e+01   4.0702006e+01   6.4352627e+01
   7.0027344e+01   4.1056641e+01   6.4695312e+01
   7.0217402e+01   4.0879740e+01   6.4708096e+01
   7.0039668e+01   4.0702006e+01   6.4708096e+01
   6.9849609e+01   4.0878906e+01   6.4695312e+01
   7.0829207e+01   4.0882868e+01   6.4386247e+01
   7.0896854e+01   4.0992956e+01   6.4326524e+01
   7.1015145e+01   4.0945003e+01   6.4083044e+01
   7.0880891e+01   4.0768309e+01   6.4259738e+01
   7.0598113e+01   4.1137405e+01   6.4664913e+01
   7.0784686e+01   4.0882868e+01   6.4435417e+01
   7.0682959e+01   4.0769652e+01   6.4511885e+01
   7.0572871e+01   4.0879740e+01   6.4579531e+01
   7.0039668e+01   4.0524271e+01   6.4885830e+01
   7.0151170e+01   4.0590504e+01   6.4997332e+01
   6.9849609e+01   4.0523438e+01   6.5050781e+01
   6.9827232e+01   4.0413351e+01   6.5338604e+01
   6.9781963e+01   4.0324483e+01   6.5338604e+01
   7.0133783e+01   4.0890906e+01   6.5108052e+01
   7.0388725e+01   4.0935322e+01   6.4830248e+01
   7.0200340e+01   4.0768238e+01   6.4997332e+01
   7.0027344e+01   4.1234375e+01   6.4873047e+01
   6.9849609e+01   4.1234375e+01   6.5050781e+01
   6.9924270e+01   4.1091749e+01   6.5371141e+01
   7.0084613e+01   4.0890906e+01   6.5175080e+01
   7.0006381e+01   4.0767404e+01   6.5229312e+01
   6.9794256e+01   4.0823553e+01   6.5350896e+01
   7.0538295e+01   4.1255322e+01   6.4782829e+01
   7.0470330e+01   4.1255322e+01   6.4871696e+01
   6.9671875e+01   4.1589844e+01   6.5228516e+01
   6.9671875e+01   4.1412109e+01   6.5050781e+01
   6.9316406e+01   4.1767578e+01   6.5406250e+01
   6.9494141e+01   4.1589844e+01   6.5406250e+01
   6.9316406e+01   4.1412109e+01   6.5406250e+01
   6.9138672e+01   4.1589844e+01   6.5406250e+01
   7.0894461e+01   4.1610094e+01   6.4428059e+01
   7.0949346e+01   4.1732943e+01   6.4413673e+01
   7.1030066e+01   4.1348425e+01   6.4148790e+01
   7.0671500e+01   4.1789839e+01   6.4781517e+01
   7.0826496e+01   4.1610094e+01   6.4536523e+01
   7.0627859e+01   4.1343492e+01   6.4694660e+01
   7.0525912e+01   4.1555209e+01   6.4769142e+01
   7.1143883e+01   4.2327467e+01   6.4579760e+01
   7.0313617e+01   4.1623548e+01   6.5209278e+01
   7.0501861e+01   4.1790773e+01   6.5042054e+01
   7.0544229e+01   4.1666337e+01   6.4905018e+01
   7.0348178e+01   4.1377475e+01   6.4927278e+01
   7.0216943e+01   4.1946247e+01   6.5064314e+01
   7.0039209e+01   4.1946247e+01   6.5242049e+01
   7.0039209e+01   4.1768513e+01   6.5419783e+01
   7.0184174e+01   4.1623548e+01   6.5387013e+01
   7.0104344e+01   4.1444879e+01   6.5373479e+01
   6.9849609e+01   4.1589844e+01   6.5406250e+01
   7.0406354e+01   4.2298073e+01   6.5255473e+01
   7.0394488e+01   4.2474873e+01   6.5064205e+01
   7.0394488e+01   4.2297139e+01   6.4886471e+01
   7.0406354e+01   4.2120339e+01   6.5077738e+01
   7.0027344e+01   4.2478516e+01   6.5406250e+01
   7.0216943e+01   4.2301716e+01   6.5419783e+01
   7.0039209e+01   4.2123981e+01   6.5419783e+01
   6.9849609e+01   4.2300781e+01   6.5406250e+01
   7.1037779e+01   4.2542520e+01   6.4885853e+01
   7.1037779e+01   4.2453652e+01   6.4818824e+01
   7.0749957e+01   4.2652607e+01   6.4886471e+01
   7.0572223e+01   4.2652607e+01   6.5064205e+01
   7.0607332e+01   4.2528632e+01   6.5365916e+01
   7.0530330e+01   4.2351832e+01   6.5379449e+01
   7.1237961e+01   4.1122737e+01   6.3905310e+01
   7.1181439e+01   4.0944493e+01   6.3892851e+01
   7.1185717e+01   4.1237297e+01   6.4031818e+01
   7.1141195e+01   4.1237297e+01   6.4082184e+01
   7.1234615e+01   4.2551628e+01   6.4622201e+01
   7.1186324e+01   4.2462761e+01   6.4622201e+01
   7.1197896e+01   4.2669664e+01   6.4751169e+01
   7.1149605e+01   4.2669664e+01   6.4818197e+01
   7.0382812e+01   4.3011719e+01   6.5228516e+01
   7.0205078e+01   4.3011719e+01   6.5406250e+01
   7.0027344e+01   4.2833984e+01   6.5406250e+01
   7.0990676e+01   4.3046827e+01   6.5193407e+01
   7.1205385e+01   4.3079123e+01   6.4874912e+01
   7.1039518e+01   4.2779752e+01   6.4885844e+01
   7.0916016e+01   4.3367188e+01   6.5050781e+01
   7.0738281e+01   4.3367188e+01   6.5228516e+01
   7.0726604e+01   4.3193096e+01   6.5392826e+01
   7.0869229e+01   4.3050470e+01   6.5357718e+01
   7.0780361e+01   4.2872735e+01   6.5357718e+01
   7.0548869e+01   4.3015361e+01   6.5392826e+01
   7.1112375e+01   4.3717190e+01   6.5233980e+01
   7.1112375e+01   4.3894925e+01   6.5056246e+01
   7.1112375e+01   4.3539456e+01   6.5056246e+01
   7.0738281e+01   4.3900391e+01   6.5406250e+01
   7.0916016e+01   4.3722656e+01   6.5406250e+01
   7.0738281e+01   4.3544922e+01   6.5406250e+01
   7.0560547e+01   4.3722656e+01   6.5406250e+01
   7.0916016e+01   4.4433594e+01   6.5406250e+01
   7.1603111e+01   4.3033182e+01   6.4426846e+01
   7.1368158e+01   4.3222223e+01   6.4751409e+01
   7.1536221e+01   4.3033182e+01   6.4515713e+01
   7.1441412e+01   4.2890082e+01   6.4550349e+01
   7.1217252e+01   4.2957486e+01   6.4641081e+01
   7.1624357e+01   4.3738410e+01   6.4679557e+01
   7.1974256e+01   4.3963399e+01   6.4632305e+01
   7.1907365e+01   4.3854936e+01   6.4632305e+01
   7.1765770e+01   4.3844004e+01   6.4820969e+01
   7.1467844e+01   4.4072659e+01   6.4878512e+01
   7.1612809e+01   4.4105429e+01   6.5023476e+01
   7.1290109e+01   4.4072659e+01   6.5056246e+01
   7.1364770e+01   4.3930033e+01   6.5376605e+01
   7.1255000e+01   4.3752299e+01   6.5376605e+01
   7.1957135e+01   4.4101033e+01   6.4780868e+01
   7.1890244e+01   4.4101033e+01   6.4869735e+01
   7.2121422e+01   4.4638015e+01   6.4777092e+01
   7.2264955e+01   4.4494481e+01   6.4565156e+01
   7.2048123e+01   4.4187779e+01   6.4694122e+01
   7.1947787e+01   4.4398959e+01   6.4769142e+01
   7.1735305e+01   4.4462720e+01   6.5208898e+01
   7.1924588e+01   4.4628905e+01   6.5042714e+01
   7.1967143e+01   4.4509047e+01   6.4906058e+01
   7.1826150e+01   4.4165127e+01   6.4983375e+01
   7.1638631e+01   4.4785419e+01   6.5063935e+01
   7.1460896e+01   4.4785419e+01   6.5241669e+01
   7.1460896e+01   4.4607685e+01   6.5419403e+01
   7.1605861e+01   4.4462720e+01   6.5386633e+01
   7.1526219e+01   4.4288629e+01   6.5373479e+01
   7.1271484e+01   4.4433594e+01   6.5406250e+01
   7.1816365e+01   4.5140888e+01   6.5241669e+01
   7.1816365e+01   4.4963153e+01   6.5063935e+01
   7.1449219e+01   4.5322266e+01   6.5406250e+01
   7.1638631e+01   4.5140888e+01   6.5419403e+01
   7.1460896e+01   4.4963153e+01   6.5419403e+01
   7.2260533e+01   4.5157945e+01   6.5106638e+01
   7.2328180e+01   4.5268033e+01   6.5065819e+01
   7.2431506e+01   4.5216604e+01   6.4800976e+01
   7.2297252e+01   4.5039909e+01   6.4977670e+01
   7.2091717e+01   4.5392009e+01   6.5405776e+01
   7.2216012e+01   4.5157945e+01   6.5173666e+01
   7.2104187e+01   4.5030800e+01   6.5241051e+01
   7.1994100e+01   4.5140888e+01   6.5308697e+01
   7.2598309e+01   4.5220246e+01   6.4609817e+01
   7.2620812e+01   4.5512374e+01   6.4752209e+01
   7.2572521e+01   4.5512374e+01   6.4821479e+01
   6.8973361e+01   4.0168903e+01   6.5952986e+01
   6.8973361e+01   4.0346638e+01   6.5775252e+01
   6.8973361e+01   4.0168903e+01   6.5597518e+01
   6.8973361e+01   3.9991169e+01   6.5775252e+01
   6.8605469e+01   4.0523438e+01   6.5583984e+01
   6.8783203e+01   4.0523438e+01   6.5761719e+01
   6.8605469e+01   4.0523438e+01   6.5939453e+01
   6.8427734e+01   4.0523438e+01   6.5761719e+01
   6.8605469e+01   4.0345703e+01   6.6117188e+01
   6.8605469e+01   3.9990234e+01   6.6117188e+01
   6.8427734e+01   4.0167969e+01   6.6117188e+01
   6.9616652e+01   4.0325418e+01   6.5529872e+01
   6.9328830e+01   4.0524372e+01   6.5597518e+01
   6.9151096e+01   4.0524372e+01   6.5775252e+01
   6.8960938e+01   4.0878906e+01   6.5939453e+01
   6.8960938e+01   4.1056641e+01   6.5761719e+01
   6.8960938e+01   4.0878906e+01   6.5583984e+01
   6.8960938e+01   4.0701172e+01   6.5761719e+01
   6.8783203e+01   4.1234375e+01   6.5761719e+01
   6.8605469e+01   4.1234375e+01   6.5939453e+01
   6.8427734e+01   4.1234375e+01   6.5761719e+01
   6.8605469e+01   4.1056641e+01   6.6117188e+01
   6.8783203e+01   4.0878906e+01   6.6117188e+01
   6.8605469e+01   4.0701172e+01   6.6117188e+01
   6.8427734e+01   4.0878906e+01   6.6117188e+01
   6.9495736e+01   4.0899151e+01   6.5852182e+01
   6.9603252e+01   4.0969368e+01   6.5781963e+01
   6.9670279e+01   4.0947528e+01   6.5582389e+01
   6.9616521e+01   4.0645818e+01   6.5578996e+01
   6.9316406e+01   4.1234375e+01   6.5583984e+01
   6.9138672e+01   4.1234375e+01   6.5761719e+01
   6.9406869e+01   4.0899151e+01   6.5962889e+01
   6.8605469e+01   4.0523438e+01   6.6294922e+01
   6.8605469e+01   4.1234375e+01   6.6294922e+01
   6.8783203e+01   4.1234375e+01   6.6472656e+01
   6.8427734e+01   4.1234375e+01   6.6472656e+01
   6.9771879e+01   4.0535731e+01   6.5460985e+01
   6.9924270e+01   4.1269483e+01   6.5548875e+01
   6.8960938e+01   4.1589844e+01   6.5939453e+01
   6.8960938e+01   4.1767578e+01   6.5761719e+01
   6.8960938e+01   4.1589844e+01   6.5583984e+01
   6.8960938e+01   4.1412109e+01   6.5761719e+01
   6.8783203e+01   4.1945312e+01   6.5761719e+01
   6.8605469e+01   4.1945312e+01   6.5939453e+01
   6.8605469e+01   4.1767578e+01   6.6117188e+01
   6.8783203e+01   4.1589844e+01   6.6117188e+01
   6.8605469e+01   4.1412109e+01   6.6117188e+01
   6.8427734e+01   4.1589844e+01   6.6117188e+01
   6.9671875e+01   4.1767578e+01   6.5761719e+01
   6.9671875e+01   4.1589844e+01   6.5583984e+01
   6.9671875e+01   4.1412109e+01   6.5711354e+01
   6.9316406e+01   4.1945312e+01   6.5583984e+01
   6.9494141e+01   4.1945312e+01   6.5761719e+01
   6.9316406e+01   4.1945312e+01   6.5939453e+01
   6.9138672e+01   4.1945312e+01   6.5761719e+01
   6.9328082e+01   4.1763936e+01   6.6130340e+01
   6.9484596e+01   4.1607422e+01   6.6109119e+01
   6.9150348e+01   4.1586201e+01   6.6130340e+01
   6.8960938e+01   4.2300781e+01   6.5939453e+01
   6.8960938e+01   4.2123047e+01   6.5761719e+01
   6.8605469e+01   4.2478516e+01   6.6117188e+01
   6.8783203e+01   4.2300781e+01   6.6117188e+01
   6.8605469e+01   4.2123047e+01   6.6117188e+01
   6.8427734e+01   4.2300781e+01   6.6117188e+01
   6.9671875e+01   4.2300781e+01   6.5939453e+01
   6.9671875e+01   4.2478516e+01   6.5761719e+01
   6.9671875e+01   4.2300781e+01   6.5583984e+01
   6.9671875e+01   4.2123047e+01   6.5761719e+01
   6.9494141e+01   4.2656250e+01   6.5761719e+01
   6.9316406e+01   4.2656250e+01   6.5939453e+01
   6.9316406e+01   4.2478516e+01   6.6117188e+01
   6.9494141e+01   4.2300781e+01   6.6117188e+01
   6.9316406e+01   4.2123047e+01   6.6117188e+01
   6.9138672e+01   4.2300781e+01   6.6117188e+01
   6.8972613e+01   4.1763936e+01   6.6485809e+01
   6.8972613e+01   4.1586201e+01   6.6308074e+01
   6.8605469e+01   4.1945312e+01   6.6294922e+01
   6.8783203e+01   4.1945312e+01   6.6472656e+01
   6.8605469e+01   4.1945312e+01   6.6650391e+01
   6.8427734e+01   4.1945312e+01   6.6472656e+01
   6.8427734e+01   4.1589844e+01   6.6828125e+01
   6.9328082e+01   4.1941670e+01   6.6308074e+01
   6.9150348e+01   4.1941670e+01   6.6485809e+01
   6.8960938e+01   4.2300781e+01   6.6650391e+01
   6.8960938e+01   4.2478516e+01   6.6472656e+01
   6.8960938e+01   4.2300781e+01   6.6294922e+01
   6.8960938e+01   4.2123047e+01   6.6472656e+01
   6.8605469e+01   4.2656250e+01   6.6294922e+01
   6.8783203e+01   4.2656250e+01   6.6472656e+01
   6.8605469e+01   4.2656250e+01   6.6650391e+01
   6.8427734e+01   4.2656250e+01   6.6472656e+01
   6.8605469e+01   4.2478516e+01   6.6828125e+01
   6.8783203e+01   4.2300781e+01   6.6828125e+01
   6.8605469e+01   4.2123047e+01   6.6828125e+01
   6.8427734e+01   4.2300781e+01   6.6828125e+01
   6.9673225e+01   4.2368701e+01   6.6296271e+01
   6.9316406e+01   4.2656250e+01   6.6294922e+01
   6.9481717e+01   4.2655315e+01   6.6459123e+01
   6.9303982e+01   4.2655315e+01   6.6636857e+01
   6.9138672e+01   4.2656250e+01   6.6472656e+01
   7.0039209e+01   4.1946247e+01   6.5597518e+01
   6.9849609e+01   4.1945312e+01   6.5761719e+01
   6.9831133e+01   4.1835226e+01   6.6049541e+01
   6.9781963e+01   4.1746358e+01   6.6049541e+01
   7.0182826e+01   4.2321729e+01   6.5849236e+01
   7.0273518e+01   4.2408772e+01   6.5762193e+01
   7.0340920e+01   4.2355475e+01   6.5543760e+01
   7.0229326e+01   4.2179563e+01   6.5719670e+01
   7.0027344e+01   4.2656250e+01   6.5583984e+01
   6.9849609e+01   4.2656250e+01   6.5761719e+01
   6.9944889e+01   4.2511801e+01   6.6172770e+01
   7.0114861e+01   4.2321729e+01   6.5938104e+01
   6.9795377e+01   4.2246549e+01   6.6151822e+01
   7.0583979e+01   4.2713651e+01   6.5516803e+01
   6.9944889e+01   4.2689535e+01   6.6261637e+01
   6.8605469e+01   4.2656250e+01   6.7005859e+01
   6.8427734e+01   4.2656250e+01   6.7183594e+01
   6.9671875e+01   4.3011719e+01   6.5939453e+01
   6.9671875e+01   4.3189453e+01   6.5761719e+01
   6.9671875e+01   4.2833984e+01   6.5761719e+01
   6.9316406e+01   4.3189453e+01   6.6117188e+01
   6.9494141e+01   4.3011719e+01   6.6117188e+01
   6.9316406e+01   4.2833984e+01   6.6117188e+01
   6.9138672e+01   4.3011719e+01   6.6117188e+01
   6.9671875e+01   4.3722656e+01   6.5939453e+01
   6.9494141e+01   4.3722656e+01   6.6117188e+01
   6.9316406e+01   4.3544922e+01   6.6117188e+01
   6.8960938e+01   4.3011719e+01   6.6650391e+01
   6.8960938e+01   4.3189453e+01   6.6472656e+01
   6.8960938e+01   4.3011719e+01   6.6294922e+01
   6.8960938e+01   4.2833984e+01   6.6472656e+01
   6.8783203e+01   4.3367188e+01   6.6472656e+01
   6.8605469e+01   4.3367188e+01   6.6650391e+01
   6.8605469e+01   4.3189453e+01   6.6828125e+01
   6.8783203e+01   4.3011719e+01   6.6828125e+01
   6.8605469e+01   4.2833984e+01   6.6828125e+01
   6.8427734e+01   4.3011719e+01   6.6828125e+01
   6.9659451e+01   4.3010784e+01   6.6636857e+01
   6.9671875e+01   4.3189453e+01   6.6472656e+01
   6.9671875e+01   4.3011719e+01   6.6294922e+01
   6.9659451e+01   4.2833050e+01   6.6459123e+01
   6.9316406e+01   4.3367188e+01   6.6294922e+01
   6.9494141e+01   4.3367188e+01   6.6472656e+01
   6.9316406e+01   4.3367188e+01   6.6650391e+01
   6.9138672e+01   4.3367188e+01   6.6472656e+01
   6.9316406e+01   4.3189453e+01   6.6828125e+01
   6.9138672e+01   4.3011719e+01   6.6828125e+01
   6.8960938e+01   4.3722656e+01   6.6650391e+01
   6.8960938e+01   4.3900391e+01   6.6472656e+01
   6.8960938e+01   4.3544922e+01   6.6472656e+01
   6.8605469e+01   4.3900391e+01   6.6828125e+01
   6.8783203e+01   4.3722656e+01   6.6828125e+01
   6.8605469e+01   4.3544922e+01   6.6828125e+01
   6.8427734e+01   4.3722656e+01   6.6828125e+01
   6.9671875e+01   4.3722656e+01   6.6650391e+01
   6.9671875e+01   4.3900391e+01   6.6472656e+01
   6.9671875e+01   4.3722656e+01   6.6294922e+01
   6.9671875e+01   4.3544922e+01   6.6472656e+01
   6.9316406e+01   4.4078125e+01   6.6294922e+01
   6.9494141e+01   4.4078125e+01   6.6472656e+01
   6.9316406e+01   4.4078125e+01   6.6650391e+01
   6.9138672e+01   4.4078125e+01   6.6472656e+01
   6.9316406e+01   4.3900391e+01   6.6828125e+01
   6.9494141e+01   4.3722656e+01   6.6828125e+01
   6.9316406e+01   4.3544922e+01   6.6828125e+01
   6.9138672e+01   4.3722656e+01   6.6828125e+01
   7.0371135e+01   4.3193096e+01   6.5748295e+01
   7.0371135e+01   4.3015361e+01   6.5570561e+01
   7.0371135e+01   4.2837627e+01   6.5681268e+01
   7.0027344e+01   4.3367188e+01   6.5583984e+01
   7.0205078e+01   4.3367188e+01   6.5761719e+01
   7.0027344e+01   4.3367188e+01   6.5939453e+01
   6.9849609e+01   4.3367188e+01   6.5761719e+01
   7.0027344e+01   4.3189453e+01   6.6117188e+01
   7.0272725e+01   4.3032939e+01   6.6184834e+01
   7.0045820e+01   4.2766338e+01   6.6184834e+01
   6.9849609e+01   4.3011719e+01   6.6117188e+01
   7.0726604e+01   4.3370830e+01   6.5570561e+01
   7.0548869e+01   4.3370830e+01   6.5748295e+01
   7.0529514e+01   4.3260743e+01   6.6036117e+01
   7.0481223e+01   4.3171876e+01   6.6036117e+01
   7.0382812e+01   4.3722656e+01   6.5939453e+01
   7.0382812e+01   4.3900391e+01   6.5761719e+01
   7.0382812e+01   4.3722656e+01   6.5583984e+01
   7.0382812e+01   4.3544922e+01   6.5761719e+01
   7.0205078e+01   4.4078125e+01   6.5761719e+01
   7.0027344e+01   4.4078125e+01   6.5939453e+01
   7.0027344e+01   4.3900391e+01   6.6117188e+01
   7.0205078e+01   4.3722656e+01   6.6117188e+01
   7.0027344e+01   4.3544922e+01   6.6117188e+01
   6.9849609e+01   4.3722656e+01   6.6117188e+01
   7.0916383e+01   4.3744130e+01   6.5850953e+01
   7.1025127e+01   4.3813118e+01   6.5781963e+01
   7.1058641e+01   4.3757765e+01   6.5548875e+01
   7.0949896e+01   4.3599909e+01   6.5706732e+01
   7.0738281e+01   4.4078125e+01   6.5583984e+01
   7.0560547e+01   4.4078125e+01   6.5761719e+01
   7.0710062e+01   4.3990147e+01   6.6138139e+01
   7.0827516e+01   4.3744130e+01   6.5939820e+01
   7.0587365e+01   4.3455688e+01   6.6095715e+01
   7.0505193e+01   4.3667303e+01   6.6150701e+01
   7.0315166e+01   4.3168233e+01   6.6227275e+01
   7.0027344e+01   4.3367188e+01   6.6294922e+01
   7.0151320e+01   4.3420946e+01   6.6418898e+01
   6.9849609e+01   4.3367188e+01   6.6472656e+01
   7.0485838e+01   4.3379481e+01   6.6171922e+01
   7.0470791e+01   4.3790573e+01   6.6294033e+01
   7.0416326e+01   4.3489568e+01   6.6289934e+01
   7.0027344e+01   4.4078125e+01   6.6294922e+01
   7.0192951e+01   4.4081768e+01   6.6459504e+01
   7.0015217e+01   4.4081768e+01   6.6637238e+01
   6.9849609e+01   4.4078125e+01   6.6472656e+01
   6.9814975e+01   4.3688021e+01   6.6793490e+01
   7.0654709e+01   4.4112528e+01   6.6260520e+01
   7.0514018e+01   4.4116171e+01   6.6425102e+01
   6.8960938e+01   4.4433594e+01   6.6650391e+01
   6.8783203e+01   4.4433594e+01   6.6828125e+01
   6.8605469e+01   4.4255859e+01   6.6828125e+01
   6.9671875e+01   4.4433594e+01   6.6650391e+01
   6.9671875e+01   4.4611328e+01   6.6472656e+01
   6.9671875e+01   4.4433594e+01   6.6294922e+01
   6.9671875e+01   4.4255859e+01   6.6472656e+01
   6.9494141e+01   4.4789062e+01   6.6472656e+01
   6.9316406e+01   4.4789062e+01   6.6650391e+01
   6.9316406e+01   4.4611328e+01   6.6828125e+01
   6.9494141e+01   4.4433594e+01   6.6828125e+01
   6.9316406e+01   4.4255859e+01   6.6828125e+01
   6.9138672e+01   4.4433594e+01   6.6828125e+01
   6.9671875e+01   4.5144531e+01   6.6650391e+01
   6.9671875e+01   4.4966797e+01   6.6472656e+01
   6.9316406e+01   4.5322266e+01   6.6828125e+01
   6.9494141e+01   4.5144531e+01   6.6828125e+01
   6.9316406e+01   4.4966797e+01   6.6828125e+01
   6.9138672e+01   4.5144531e+01   6.6828125e+01
   7.0382812e+01   4.4433594e+01   6.5939453e+01
   7.0382812e+01   4.4255859e+01   6.5761719e+01
   7.0027344e+01   4.4611328e+01   6.6117188e+01
   7.0205078e+01   4.4433594e+01   6.6117188e+01
   7.0027344e+01   4.4255859e+01   6.6117188e+01
   6.9849609e+01   4.4433594e+01   6.6117188e+01
   7.1093750e+01   4.4611328e+01   6.5761719e+01
   7.1093750e+01   4.4433594e+01   6.5583984e+01
   7.1093750e+01   4.4255859e+01   6.5711354e+01
   7.0916016e+01   4.4789062e+01   6.5761719e+01
   7.0738281e+01   4.4789062e+01   6.5939453e+01
   7.0560547e+01   4.4789062e+01   6.5761719e+01
   7.0738281e+01   4.4611328e+01   6.6117188e+01
   7.0983662e+01   4.4454814e+01   6.6184834e+01
   7.0756758e+01   4.4188213e+01   6.6184834e+01
   7.0560547e+01   4.4433594e+01   6.6117188e+01
   7.0205078e+01   4.5144531e+01   6.6117188e+01
   7.1093750e+01   4.5144531e+01   6.5939453e+01
   7.1093750e+01   4.5322266e+01   6.5761719e+01
   7.1093750e+01   4.5144531e+01   6.5583984e+01
   7.1093750e+01   4.4966797e+01   6.5761719e+01
   7.0738281e+01   4.5500000e+01   6.5939453e+01
   7.0738281e+01   4.5322266e+01   6.6117188e+01
   7.0916016e+01   4.5144531e+01   6.6117188e+01
   7.0738281e+01   4.4966797e+01   6.6117188e+01
   7.0560547e+01   4.5144531e+01   6.6117188e+01
   7.0370686e+01   4.4437236e+01   6.6637238e+01
   7.0382812e+01   4.4611328e+01   6.6472656e+01
   7.0382812e+01   4.4433594e+01   6.6294922e+01
   7.0370686e+01   4.4259502e+01   6.6459504e+01
   7.0027344e+01   4.4789062e+01   6.6294922e+01
   7.0205078e+01   4.4789062e+01   6.6472656e+01
