   6.4339844e+01   4.7810547e+01   6.8960938e+01
   6.4162109e+01   4.7988281e+01   6.8960938e+01
   6.5406250e+01   4.7988281e+01   6.8783203e+01
   6.5406250e+01   4.8166016e+01   6.8605469e+01
   6.5406250e+01   4.7988281e+01   6.8427734e+01
   6.5406250e+01   4.7810547e+01   6.8605469e+01
   6.5050781e+01   4.8343750e+01   6.8427734e+01
   6.5228516e+01   4.8343750e+01   6.8605469e+01
   6.5050781e+01   4.8343750e+01   6.8783203e+01
   6.4873047e+01   4.8343750e+01   6.8605469e+01
   6.5139648e+01   4.7899414e+01   6.8338867e+01
   6.4961914e+01   4.8077148e+01   6.8338867e+01
   6.5050781e+01   4.8166016e+01   6.8960938e+01
   6.5228516e+01   4.7988281e+01   6.8960938e+01
   6.5050781e+01   4.7810547e+01   6.8960938e+01
   6.4873047e+01   4.7988281e+01   6.8960938e+01
   6.4695312e+01   4.7277344e+01   6.9494141e+01
   6.4695312e+01   4.7455078e+01   6.9316406e+01
   6.4695312e+01   4.7277344e+01   6.9138672e+01
   6.4695312e+01   4.7099609e+01   6.9316406e+01
   6.4339844e+01   4.7632812e+01   6.9138672e+01
   6.4517578e+01   4.7632812e+01   6.9316406e+01
   6.4339844e+01   4.7632812e+01   6.9494141e+01
   6.4162109e+01   4.7632812e+01   6.9316406e+01
   6.4339844e+01   4.7455078e+01   6.9671875e+01
   6.4517578e+01   4.7277344e+01   6.9671875e+01
   6.4339844e+01   4.7099609e+01   6.9671875e+01
   6.4162109e+01   4.7277344e+01   6.9671875e+01
   6.5406250e+01   4.7277344e+01   6.9494141e+01
   6.5406250e+01   4.7455078e+01   6.9316406e+01
   6.5406250e+01   4.7277344e+01   6.9138672e+01
   6.5406250e+01   4.7099609e+01   6.9316406e+01
   6.5050781e+01   4.7632812e+01   6.9138672e+01
   6.5228516e+01   4.7632812e+01   6.9316406e+01
   6.5050781e+01   4.7632812e+01   6.9494141e+01
   6.4873047e+01   4.7632812e+01   6.9316406e+01
   6.5050781e+01   4.7455078e+01   6.9671875e+01
   6.5228516e+01   4.7277344e+01   6.9671875e+01
   6.5050781e+01   4.7099609e+01   6.9671875e+01
   6.4873047e+01   4.7277344e+01   6.9671875e+01
   6.4695312e+01   4.7988281e+01   6.9494141e+01
   6.4695312e+01   4.8166016e+01   6.9316406e+01
   6.4695312e+01   4.7988281e+01   6.9138672e+01
   6.4695312e+01   4.7810547e+01   6.9316406e+01
   6.4339844e+01   4.8343750e+01   6.9138672e+01
   6.4517578e+01   4.8343750e+01   6.9316406e+01
   6.4339844e+01   4.8343750e+01   6.9494141e+01
   6.4162109e+01   4.8343750e+01   6.9316406e+01
   6.4339844e+01   4.8166016e+01   6.9671875e+01
   6.4517578e+01   4.7988281e+01   6.9671875e+01
   6.4339844e+01   4.7810547e+01   6.9671875e+01
   6.4162109e+01   4.7988281e+01   6.9671875e+01
   6.5406250e+01   4.7988281e+01   6.9494141e+01
   6.5406250e+01   4.8166016e+01   6.9316406e+01
   6.5406250e+01   4.7988281e+01   6.9138672e+01
   6.5406250e+01   4.7810547e+01   6.9316406e+01
   6.5050781e+01   4.8343750e+01   6.9138672e+01
   6.5228516e+01   4.8343750e+01   6.9316406e+01
   6.5050781e+01   4.8343750e+01   6.9494141e+01
   6.4873047e+01   4.8343750e+01   6.9316406e+01
   6.5050781e+01   4.8166016e+01   6.9671875e+01
   6.5228516e+01   4.7988281e+01   6.9671875e+01
   6.5050781e+01   4.7810547e+01   6.9671875e+01
   6.4873047e+01   4.7988281e+01   6.9671875e+01
   6.3273438e+01   4.5855469e+01   7.0205078e+01
   6.3273438e+01   4.6033203e+01   7.0027344e+01
   6.3273438e+01   4.5855469e+01   6.9849609e+01
   6.3273438e+01   4.5677734e+01   7.0027344e+01
   6.2917969e+01   4.6210938e+01   6.9849609e+01
   6.3095703e+01   4.6210938e+01   7.0027344e+01
   6.2917969e+01   4.6210938e+01   7.0205078e+01
   6.2740234e+01   4.6210938e+01   7.0027344e+01
   6.2917969e+01   4.6033203e+01   7.0382812e+01
   6.3095703e+01   4.5855469e+01   7.0382812e+01
   6.2917969e+01   4.5677734e+01   7.0382812e+01
   6.2740234e+01   4.5855469e+01   7.0382812e+01
   6.3984375e+01   4.5855469e+01   7.0205078e+01
   6.3984375e+01   4.6033203e+01   7.0027344e+01
   6.3984375e+01   4.5855469e+01   6.9849609e+01
   6.3984375e+01   4.5677734e+01   7.0027344e+01
   6.3628906e+01   4.6210938e+01   6.9849609e+01
   6.3806641e+01   4.6210938e+01   7.0027344e+01
   6.3628906e+01   4.6210938e+01   7.0205078e+01
   6.3451172e+01   4.6210938e+01   7.0027344e+01
   6.3628906e+01   4.6033203e+01   7.0382812e+01
   6.3806641e+01   4.5855469e+01   7.0382812e+01
   6.3628906e+01   4.5677734e+01   7.0382812e+01
   6.3451172e+01   4.5855469e+01   7.0382812e+01
   6.3273438e+01   4.6566406e+01   7.0205078e+01
   6.3273438e+01   4.6744141e+01   7.0027344e+01
   6.3273438e+01   4.6566406e+01   6.9849609e+01
   6.3273438e+01   4.6388672e+01   7.0027344e+01
   6.2917969e+01   4.6921875e+01   6.9849609e+01
   6.3095703e+01   4.6921875e+01   7.0027344e+01
   6.2917969e+01   4.6921875e+01   7.0205078e+01
   6.2740234e+01   4.6921875e+01   7.0027344e+01
   6.2917969e+01   4.6744141e+01   7.0382812e+01
   6.3095703e+01   4.6566406e+01   7.0382812e+01
   6.2917969e+01   4.6388672e+01   7.0382812e+01
   6.2740234e+01   4.6566406e+01   7.0382812e+01
   6.3984375e+01   4.6566406e+01   7.0205078e+01
   6.3984375e+01   4.6744141e+01   7.0027344e+01
   6.3984375e+01   4.6566406e+01   6.9849609e+01
   6.3984375e+01   4.6388672e+01   7.0027344e+01
   6.3628906e+01   4.6921875e+01   6.9849609e+01
   6.3806641e+01   4.6921875e+01   7.0027344e+01
   6.3628906e+01   4.6921875e+01   7.0205078e+01
   6.3451172e+01   4.6921875e+01   7.0027344e+01
   6.3628906e+01   4.6744141e+01   7.0382812e+01
   6.3806641e+01   4.6566406e+01   7.0382812e+01
   6.3628906e+01   4.6388672e+01   7.0382812e+01
   6.3451172e+01   4.6566406e+01   7.0382812e+01
   6.3273438e+01   4.5855469e+01   7.0916016e+01
   6.3273438e+01   4.6033203e+01   7.0738281e+01
   6.3273438e+01   4.5855469e+01   7.0560547e+01
   6.3273438e+01   4.5677734e+01   7.0738281e+01
   6.2917969e+01   4.6210938e+01   7.0560547e+01
   6.3095703e+01   4.6210938e+01   7.0738281e+01
   6.2917969e+01   4.6210938e+01   7.0916016e+01
   6.2740234e+01   4.6210938e+01   7.0738281e+01
   6.3095703e+01   4.5855469e+01   7.1093750e+01
   6.3984375e+01   4.5855469e+01   7.0916016e+01
   6.3984375e+01   4.6033203e+01   7.0738281e+01
   6.3984375e+01   4.5855469e+01   7.0560547e+01
   6.3984375e+01   4.5677734e+01   7.0738281e+01
   6.3628906e+01   4.6210938e+01   7.0560547e+01
   6.3806641e+01   4.6210938e+01   7.0738281e+01
   6.3628906e+01   4.6210938e+01   7.0916016e+01
   6.3451172e+01   4.6210938e+01   7.0738281e+01
   6.3628906e+01   4.6033203e+01   7.1093750e+01
   6.3806641e+01   4.5855469e+01   7.1093750e+01
   6.3628906e+01   4.5677734e+01   7.1093750e+01
   6.3451172e+01   4.5855469e+01   7.1093750e+01
   6.3273438e+01   4.6566406e+01   7.0916016e+01
   6.3273438e+01   4.6744141e+01   7.0738281e+01
   6.3273438e+01   4.6566406e+01   7.0560547e+01
   6.3273438e+01   4.6388672e+01   7.0738281e+01
   6.2917969e+01   4.6921875e+01   7.0560547e+01
   6.3095703e+01   4.6921875e+01   7.0738281e+01
   6.2917969e+01   4.6921875e+01   7.0916016e+01
   6.2740234e+01   4.6921875e+01   7.0738281e+01
   6.2917969e+01   4.6744141e+01   7.1093750e+01
   6.3095703e+01   4.6566406e+01   7.1093750e+01
   6.2917969e+01   4.6388672e+01   7.1093750e+01
   6.3984375e+01   4.6566406e+01   7.0916016e+01
   6.3984375e+01   4.6744141e+01   7.0738281e+01
   6.3984375e+01   4.6566406e+01   7.0560547e+01
   6.3984375e+01   4.6388672e+01   7.0738281e+01
   6.3628906e+01   4.6921875e+01   7.0560547e+01
   6.3806641e+01   4.6921875e+01   7.0738281e+01
   6.3628906e+01   4.6921875e+01   7.0916016e+01
   6.3451172e+01   4.6921875e+01   7.0738281e+01
   6.3628906e+01   4.6744141e+01   7.1093750e+01
   6.3806641e+01   4.6566406e+01   7.1093750e+01
   6.3628906e+01   4.6388672e+01   7.1093750e+01
   6.3451172e+01   4.6566406e+01   7.1093750e+01
   6.4695312e+01   4.5855469e+01   7.0205078e+01
   6.4695312e+01   4.6033203e+01   7.0027344e+01
   6.4695312e+01   4.5855469e+01   6.9849609e+01
   6.4695312e+01   4.5677734e+01   7.0027344e+01
   6.4339844e+01   4.6210938e+01   6.9849609e+01
   6.4517578e+01   4.6210938e+01   7.0027344e+01
   6.4339844e+01   4.6210938e+01   7.0205078e+01
   6.4162109e+01   4.6210938e+01   7.0027344e+01
   6.4339844e+01   4.6033203e+01   7.0382812e+01
   6.4517578e+01   4.5855469e+01   7.0382812e+01
   6.4339844e+01   4.5677734e+01   7.0382812e+01
   6.4162109e+01   4.5855469e+01   7.0382812e+01
   6.5406250e+01   4.5855469e+01   7.0205078e+01
   6.5406250e+01   4.6033203e+01   7.0027344e+01
   6.5406250e+01   4.5855469e+01   6.9849609e+01
   6.5406250e+01   4.5677734e+01   7.0027344e+01
   6.5050781e+01   4.6210938e+01   6.9849609e+01
   6.5228516e+01   4.6210938e+01   7.0027344e+01
   6.5050781e+01   4.6210938e+01   7.0205078e+01
   6.4873047e+01   4.6210938e+01   7.0027344e+01
   6.5050781e+01   4.6033203e+01   7.0382812e+01
   6.5228516e+01   4.5855469e+01   7.0382812e+01
   6.5050781e+01   4.5677734e+01   7.0382812e+01
   6.4873047e+01   4.5855469e+01   7.0382812e+01
   6.4695312e+01   4.6566406e+01   7.0205078e+01
   6.4695312e+01   4.6744141e+01   7.0027344e+01
   6.4695312e+01   4.6566406e+01   6.9849609e+01
   6.4695312e+01   4.6388672e+01   7.0027344e+01
   6.4339844e+01   4.6921875e+01   6.9849609e+01
   6.4517578e+01   4.6921875e+01   7.0027344e+01
   6.4339844e+01   4.6921875e+01   7.0205078e+01
   6.4162109e+01   4.6921875e+01   7.0027344e+01
   6.4339844e+01   4.6744141e+01   7.0382812e+01
   6.4517578e+01   4.6566406e+01   7.0382812e+01
   6.4339844e+01   4.6388672e+01   7.0382812e+01
   6.4162109e+01   4.6566406e+01   7.0382812e+01
   6.5406250e+01   4.6566406e+01   7.0205078e+01
   6.5406250e+01   4.6744141e+01   7.0027344e+01
   6.5406250e+01   4.6566406e+01   6.9849609e+01
   6.5406250e+01   4.6388672e+01   7.0027344e+01
   6.5050781e+01   4.6921875e+01   6.9849609e+01
   6.5228516e+01   4.6921875e+01   7.0027344e+01
   6.5050781e+01   4.6921875e+01   7.0205078e+01
   6.4873047e+01   4.6921875e+01   7.0027344e+01
   6.5050781e+01   4.6744141e+01   7.0382812e+01
   6.5228516e+01   4.6566406e+01   7.0382812e+01
   6.5050781e+01   4.6388672e+01   7.0382812e+01
   6.4873047e+01   4.6566406e+01   7.0382812e+01
   6.4695312e+01   4.5855469e+01   7.0916016e+01
   6.4695312e+01   4.6033203e+01   7.0738281e+01
   6.4695312e+01   4.5855469e+01   7.0560547e+01
   6.4695312e+01   4.5677734e+01   7.0738281e+01
   6.4339844e+01   4.6210938e+01   7.0560547e+01
   6.4517578e+01   4.6210938e+01   7.0738281e+01
   6.4339844e+01   4.6210938e+01   7.0916016e+01
   6.4162109e+01   4.6210938e+01   7.0738281e+01
   6.4339844e+01   4.6033203e+01   7.1093750e+01
   6.4517578e+01   4.5855469e+01   7.1093750e+01
   6.4339844e+01   4.5677734e+01   7.1093750e+01
   6.4162109e+01   4.5855469e+01   7.1093750e+01
   6.5406250e+01   4.5855469e+01   7.0916016e+01
   6.5406250e+01   4.6033203e+01   7.0738281e+01
   6.5406250e+01   4.5855469e+01   7.0560547e+01
   6.5406250e+01   4.5677734e+01   7.0738281e+01
   6.5050781e+01   4.6210938e+01   7.0560547e+01
   6.5228516e+01   4.6210938e+01   7.0738281e+01
   6.5050781e+01   4.6210938e+01   7.0916016e+01
   6.4873047e+01   4.6210938e+01   7.0738281e+01
   6.5050781e+01   4.6033203e+01   7.1093750e+01
   6.5228516e+01   4.5855469e+01   7.1093750e+01
   6.5050781e+01   4.5677734e+01   7.1093750e+01
   6.4873047e+01   4.5855469e+01   7.1093750e+01
   6.4695312e+01   4.6566406e+01   7.0916016e+01
   6.4695312e+01   4.6744141e+01   7.0738281e+01
   6.4695312e+01   4.6566406e+01   7.0560547e+01
   6.4695312e+01   4.6388672e+01   7.0738281e+01
   6.4339844e+01   4.6921875e+01   7.0560547e+01
   6.4517578e+01   4.6921875e+01   7.0738281e+01
   6.4339844e+01   4.6921875e+01   7.0916016e+01
   6.4162109e+01   4.6921875e+01   7.0738281e+01
   6.4339844e+01   4.6744141e+01   7.1093750e+01
   6.4517578e+01   4.6566406e+01   7.1093750e+01
   6.4339844e+01   4.6388672e+01   7.1093750e+01
   6.4162109e+01   4.6566406e+01   7.1093750e+01
   6.5406250e+01   4.6566406e+01   7.0916016e+01
   6.5406250e+01   4.6744141e+01   7.0738281e+01
   6.5406250e+01   4.6566406e+01   7.0560547e+01
   6.5406250e+01   4.6388672e+01   7.0738281e+01
   6.5050781e+01   4.6921875e+01   7.0560547e+01
   6.5228516e+01   4.6921875e+01   7.0738281e+01
   6.5050781e+01   4.6921875e+01   7.0916016e+01
   6.4873047e+01   4.6921875e+01   7.0738281e+01
   6.5050781e+01   4.6744141e+01   7.1093750e+01
   6.5228516e+01   4.6566406e+01   7.1093750e+01
   6.5050781e+01   4.6388672e+01   7.1093750e+01
   6.4873047e+01   4.6566406e+01   7.1093750e+01
   6.3273438e+01   4.7277344e+01   7.0205078e+01
   6.3273438e+01   4.7455078e+01   7.0027344e+01
   6.3273438e+01   4.7277344e+01   6.9849609e+01
   6.3273438e+01   4.7099609e+01   7.0027344e+01
   6.2917969e+01   4.7632812e+01   6.9849609e+01
   6.3095703e+01   4.7632812e+01   7.0027344e+01
   6.2917969e+01   4.7632812e+01   7.0205078e+01
   6.2740234e+01   4.7632812e+01   7.0027344e+01
   6.2917969e+01   4.7455078e+01   7.0382812e+01
   6.3095703e+01   4.7277344e+01   7.0382812e+01
   6.2917969e+01   4.7099609e+01   7.0382812e+01
   6.2740234e+01   4.7277344e+01   7.0382812e+01
   6.3984375e+01   4.7277344e+01   7.0205078e+01
   6.3984375e+01   4.7455078e+01   7.0027344e+01
   6.3984375e+01   4.7277344e+01   6.9849609e+01
   6.3984375e+01   4.7099609e+01   7.0027344e+01
   6.3628906e+01   4.7632812e+01   6.9849609e+01
   6.3806641e+01   4.7632812e+01   7.0027344e+01
   6.3628906e+01   4.7632812e+01   7.0205078e+01
   6.3451172e+01   4.7632812e+01   7.0027344e+01
   6.3628906e+01   4.7455078e+01   7.0382812e+01
   6.3806641e+01   4.7277344e+01   7.0382812e+01
   6.3628906e+01   4.7099609e+01   7.0382812e+01
   6.3451172e+01   4.7277344e+01   7.0382812e+01
   6.3273438e+01   4.7988281e+01   7.0205078e+01
   6.3273438e+01   4.8166016e+01   7.0027344e+01
   6.3273438e+01   4.7988281e+01   6.9849609e+01
   6.3273438e+01   4.7810547e+01   7.0027344e+01
   6.2917969e+01   4.8343750e+01   6.9849609e+01
   6.3095703e+01   4.8343750e+01   7.0027344e+01
   6.2917969e+01   4.8343750e+01   7.0205078e+01
   6.2740234e+01   4.8343750e+01   7.0027344e+01
   6.2917969e+01   4.8166016e+01   7.0382812e+01
   6.3095703e+01   4.7988281e+01   7.0382812e+01
   6.2917969e+01   4.7810547e+01   7.0382812e+01
   6.2740234e+01   4.7988281e+01   7.0382812e+01
   6.3984375e+01   4.7988281e+01   7.0205078e+01
   6.3984375e+01   4.8166016e+01   7.0027344e+01
   6.3984375e+01   4.7988281e+01   6.9849609e+01
   6.3984375e+01   4.7810547e+01   7.0027344e+01
   6.3628906e+01   4.8343750e+01   6.9849609e+01
   6.3806641e+01   4.8343750e+01   7.0027344e+01
   6.3628906e+01   4.8343750e+01   7.0205078e+01
   6.3451172e+01   4.8343750e+01   7.0027344e+01
   6.3628906e+01   4.8166016e+01   7.0382812e+01
   6.3806641e+01   4.7988281e+01   7.0382812e+01
   6.3628906e+01   4.7810547e+01   7.0382812e+01
   6.3451172e+01   4.7988281e+01   7.0382812e+01
   6.3273438e+01   4.7277344e+01   7.0916016e+01
   6.3273438e+01   4.7455078e+01   7.0738281e+01
   6.3273438e+01   4.7277344e+01   7.0560547e+01
   6.3273438e+01   4.7099609e+01   7.0738281e+01
   6.2917969e+01   4.7632812e+01   7.0560547e+01
   6.3095703e+01   4.7632812e+01   7.0738281e+01
   6.2917969e+01   4.7632812e+01   7.0916016e+01
   6.2740234e+01   4.7632812e+01   7.0738281e+01
   6.2917969e+01   4.7455078e+01   7.1093750e+01
   6.3095703e+01   4.7277344e+01   7.1093750e+01
   6.2917969e+01   4.7099609e+01   7.1093750e+01
   6.2740234e+01   4.7277344e+01   7.1093750e+01
   6.3984375e+01   4.7277344e+01   7.0916016e+01
   6.3984375e+01   4.7455078e+01   7.0738281e+01
   6.3984375e+01   4.7277344e+01   7.0560547e+01
   6.3984375e+01   4.7099609e+01   7.0738281e+01
   6.3628906e+01   4.7632812e+01   7.0560547e+01
   6.3806641e+01   4.7632812e+01   7.0738281e+01
   6.3628906e+01   4.7632812e+01   7.0916016e+01
   6.3451172e+01   4.7632812e+01   7.0738281e+01
   6.3628906e+01   4.7455078e+01   7.1093750e+01
   6.3806641e+01   4.7277344e+01   7.1093750e+01
   6.3628906e+01   4.7099609e+01   7.1093750e+01
   6.3451172e+01   4.7277344e+01   7.1093750e+01
   6.3273438e+01   4.7988281e+01   7.0916016e+01
   6.3273438e+01   4.8166016e+01   7.0738281e+01
   6.3273438e+01   4.7988281e+01   7.0560547e+01
   6.3273438e+01   4.7810547e+01   7.0738281e+01
   6.2917969e+01   4.8343750e+01   7.0560547e+01
   6.3095703e+01   4.8343750e+01   7.0738281e+01
   6.2917969e+01   4.8343750e+01   7.0916016e+01
   6.2740234e+01   4.8343750e+01   7.0738281e+01
   6.2917969e+01   4.8166016e+01   7.1093750e+01
   6.3095703e+01   4.7988281e+01   7.1093750e+01
   6.2917969e+01   4.7810547e+01   7.1093750e+01
   6.2740234e+01   4.7988281e+01   7.1093750e+01
   6.3984375e+01   4.7988281e+01   7.0916016e+01
   6.3984375e+01   4.8166016e+01   7.0738281e+01
   6.3984375e+01   4.7988281e+01   7.0560547e+01
   6.3984375e+01   4.7810547e+01   7.0738281e+01
   6.3628906e+01   4.8343750e+01   7.0560547e+01
   6.3806641e+01   4.8343750e+01   7.0738281e+01
   6.3628906e+01   4.8343750e+01   7.0916016e+01
   6.3451172e+01   4.8343750e+01   7.0738281e+01
   6.3628906e+01   4.8166016e+01   7.1093750e+01
   6.3806641e+01   4.7988281e+01   7.1093750e+01
   6.3628906e+01   4.7810547e+01   7.1093750e+01
   6.3451172e+01   4.7988281e+01   7.1093750e+01
   6.4695312e+01   4.7277344e+01   7.0205078e+01
   6.4695312e+01   4.7455078e+01   7.0027344e+01
   6.4695312e+01   4.7277344e+01   6.9849609e+01
   6.4695312e+01   4.7099609e+01   7.0027344e+01
   6.4339844e+01   4.7632812e+01   6.9849609e+01
   6.4517578e+01   4.7632812e+01   7.0027344e+01
   6.4339844e+01   4.7632812e+01   7.0205078e+01
   6.4162109e+01   4.7632812e+01   7.0027344e+01
   6.4339844e+01   4.7455078e+01   7.0382812e+01
   6.4517578e+01   4.7277344e+01   7.0382812e+01
   6.4339844e+01   4.7099609e+01   7.0382812e+01
   6.4162109e+01   4.7277344e+01   7.0382812e+01
   6.5406250e+01   4.7277344e+01   7.0205078e+01
   6.5406250e+01   4.7455078e+01   7.0027344e+01
   6.5406250e+01   4.7277344e+01   6.9849609e+01
   6.5406250e+01   4.7099609e+01   7.0027344e+01
   6.5050781e+01   4.7632812e+01   6.9849609e+01
   6.5228516e+01   4.7632812e+01   7.0027344e+01
   6.5050781e+01   4.7632812e+01   7.0205078e+01
   6.4873047e+01   4.7632812e+01   7.0027344e+01
   6.5050781e+01   4.7455078e+01   7.0382812e+01
   6.5228516e+01   4.7277344e+01   7.0382812e+01
   6.5050781e+01   4.7099609e+01   7.0382812e+01
   6.4873047e+01   4.7277344e+01   7.0382812e+01
   6.4695312e+01   4.7988281e+01   7.0205078e+01
   6.4695312e+01   4.8166016e+01   7.0027344e+01
   6.4695312e+01   4.7988281e+01   6.9849609e+01
   6.4695312e+01   4.7810547e+01   7.0027344e+01
   6.4339844e+01   4.8343750e+01   6.9849609e+01
   6.4517578e+01   4.8343750e+01   7.0027344e+01
   6.4339844e+01   4.8343750e+01   7.0205078e+01
   6.4162109e+01   4.8343750e+01   7.0027344e+01
   6.4339844e+01   4.8166016e+01   7.0382812e+01
   6.4517578e+01   4.7988281e+01   7.0382812e+01
   6.4339844e+01   4.7810547e+01   7.0382812e+01
   6.4162109e+01   4.7988281e+01   7.0382812e+01
   6.5406250e+01   4.7988281e+01   7.0205078e+01
   6.5406250e+01   4.8166016e+01   7.0027344e+01
   6.5406250e+01   4.7988281e+01   6.9849609e+01
   6.5406250e+01   4.7810547e+01   7.0027344e+01
   6.5050781e+01   4.8343750e+01   6.9849609e+01
   6.5228516e+01   4.8343750e+01   7.0027344e+01
   6.5050781e+01   4.8343750e+01   7.0205078e+01
   6.4873047e+01   4.8343750e+01   7.0027344e+01
   6.5050781e+01   4.8166016e+01   7.0382812e+01
   6.5228516e+01   4.7988281e+01   7.0382812e+01
   6.5050781e+01   4.7810547e+01   7.0382812e+01
   6.4873047e+01   4.7988281e+01   7.0382812e+01
   6.4695312e+01   4.7277344e+01   7.0916016e+01
   6.4695312e+01   4.7455078e+01   7.0738281e+01
   6.4695312e+01   4.7277344e+01   7.0560547e+01
   6.4695312e+01   4.7099609e+01   7.0738281e+01
   6.4339844e+01   4.7632812e+01   7.0560547e+01
   6.4517578e+01   4.7632812e+01   7.0738281e+01
   6.4339844e+01   4.7632812e+01   7.0916016e+01
   6.4162109e+01   4.7632812e+01   7.0738281e+01
   6.4339844e+01   4.7455078e+01   7.1093750e+01
   6.4517578e+01   4.7277344e+01   7.1093750e+01
   6.4339844e+01   4.7099609e+01   7.1093750e+01
   6.4162109e+01   4.7277344e+01   7.1093750e+01
   6.5406250e+01   4.7277344e+01   7.0916016e+01
   6.5406250e+01   4.7455078e+01   7.0738281e+01
   6.5406250e+01   4.7277344e+01   7.0560547e+01
   6.5406250e+01   4.7099609e+01   7.0738281e+01
   6.5050781e+01   4.7632812e+01   7.0560547e+01
   6.5228516e+01   4.7632812e+01   7.0738281e+01
   6.5050781e+01   4.7632812e+01   7.0916016e+01
   6.4873047e+01   4.7632812e+01   7.0738281e+01
   6.5050781e+01   4.7455078e+01   7.1093750e+01
   6.5228516e+01   4.7277344e+01   7.1093750e+01
   6.5050781e+01   4.7099609e+01   7.1093750e+01
   6.4873047e+01   4.7277344e+01   7.1093750e+01
   6.4695312e+01   4.7988281e+01   7.0916016e+01
   6.4695312e+01   4.8166016e+01   7.0738281e+01
   6.4695312e+01   4.7988281e+01   7.0560547e+01
   6.4695312e+01   4.7810547e+01   7.0738281e+01
   6.4339844e+01   4.8343750e+01   7.0560547e+01
   6.4517578e+01   4.8343750e+01   7.0738281e+01
   6.4339844e+01   4.8343750e+01   7.0916016e+01
   6.4162109e+01   4.8343750e+01   7.0738281e+01
   6.4339844e+01   4.8166016e+01   7.1093750e+01
   6.4517578e+01   4.7988281e+01   7.1093750e+01
   6.4339844e+01   4.7810547e+01   7.1093750e+01
   6.4162109e+01   4.7988281e+01   7.1093750e+01
   6.5406250e+01   4.7988281e+01   7.0916016e+01
   6.5406250e+01   4.8166016e+01   7.0738281e+01
   6.5406250e+01   4.7988281e+01   7.0560547e+01
   6.5406250e+01   4.7810547e+01   7.0738281e+01
   6.5050781e+01   4.8343750e+01   7.0560547e+01
   6.5228516e+01   4.8343750e+01   7.0738281e+01
   6.5050781e+01   4.8343750e+01   7.0916016e+01
   6.4873047e+01   4.8343750e+01   7.0738281e+01
   6.5050781e+01   4.8166016e+01   7.1093750e+01
   6.5228516e+01   4.7988281e+01   7.1093750e+01
   6.5050781e+01   4.7810547e+01   7.1093750e+01
   6.4873047e+01   4.7988281e+01   7.1093750e+01
   6.6117188e+01   4.5855469e+01   6.8783203e+01
   6.6117188e+01   4.6033203e+01   6.8605469e+01
   6.6117188e+01   4.5855469e+01   6.8427734e+01
   6.6117188e+01   4.5677734e+01   6.8605469e+01
   6.5761719e+01   4.6210938e+01   6.8427734e+01
   6.5939453e+01   4.6210938e+01   6.8605469e+01
   6.5761719e+01   4.6210938e+01   6.8783203e+01
   6.5583984e+01   4.6210938e+01   6.8605469e+01
   6.5761719e+01   4.6033203e+01   6.8960938e+01
   6.5939453e+01   4.5855469e+01   6.8960938e+01
   6.5761719e+01   4.5677734e+01   6.8960938e+01
   6.5583984e+01   4.5855469e+01   6.8960938e+01
   6.6828125e+01   4.5855469e+01   6.8783203e+01
   6.6828125e+01   4.6033203e+01   6.8605469e+01
   6.6828125e+01   4.5855469e+01   6.8427734e+01
   6.6828125e+01   4.5677734e+01   6.8605469e+01
   6.6472656e+01   4.6210938e+01   6.8427734e+01
   6.6650391e+01   4.6210938e+01   6.8605469e+01
   6.6472656e+01   4.6210938e+01   6.8783203e+01
   6.6294922e+01   4.6210938e+01   6.8605469e+01
   6.6472656e+01   4.6033203e+01   6.8960938e+01
   6.6650391e+01   4.5855469e+01   6.8960938e+01
   6.6472656e+01   4.5677734e+01   6.8960938e+01
   6.6294922e+01   4.5855469e+01   6.8960938e+01
   6.6117188e+01   4.6566406e+01   6.8783203e+01
   6.6117188e+01   4.6744141e+01   6.8605469e+01
   6.6117188e+01   4.6566406e+01   6.8427734e+01
   6.6117188e+01   4.6388672e+01   6.8605469e+01
   6.5761719e+01   4.6921875e+01   6.8427734e+01
   6.5939453e+01   4.6921875e+01   6.8605469e+01
   6.5761719e+01   4.6921875e+01   6.8783203e+01
   6.5583984e+01   4.6921875e+01   6.8605469e+01
   6.5761719e+01   4.6744141e+01   6.8960938e+01
   6.5939453e+01   4.6566406e+01   6.8960938e+01
   6.5761719e+01   4.6388672e+01   6.8960938e+01
   6.5583984e+01   4.6566406e+01   6.8960938e+01
   6.6828125e+01   4.6566406e+01   6.8783203e+01
   6.6828125e+01   4.6744141e+01   6.8605469e+01
   6.6828125e+01   4.6566406e+01   6.8427734e+01
   6.6828125e+01   4.6388672e+01   6.8605469e+01
   6.6472656e+01   4.6921875e+01   6.8427734e+01
   6.6650391e+01   4.6921875e+01   6.8605469e+01
   6.6472656e+01   4.6921875e+01   6.8783203e+01
   6.6294922e+01   4.6921875e+01   6.8605469e+01
   6.6472656e+01   4.6744141e+01   6.8960938e+01
   6.6650391e+01   4.6566406e+01   6.8960938e+01
   6.6472656e+01   4.6388672e+01   6.8960938e+01
   6.6294922e+01   4.6566406e+01   6.8960938e+01
   6.6117188e+01   4.5855469e+01   6.9494141e+01
   6.6117188e+01   4.6033203e+01   6.9316406e+01
   6.6117188e+01   4.5855469e+01   6.9138672e+01
   6.6117188e+01   4.5677734e+01   6.9316406e+01
   6.5761719e+01   4.6210938e+01   6.9138672e+01
   6.5939453e+01   4.6210938e+01   6.9316406e+01
   6.5761719e+01   4.6210938e+01   6.9494141e+01
   6.5583984e+01   4.6210938e+01   6.9316406e+01
   6.5761719e+01   4.6033203e+01   6.9671875e+01
   6.5939453e+01   4.5855469e+01   6.9671875e+01
   6.5761719e+01   4.5677734e+01   6.9671875e+01
   6.5583984e+01   4.5855469e+01   6.9671875e+01
   6.6828125e+01   4.5855469e+01   6.9494141e+01
   6.6828125e+01   4.6033203e+01   6.9316406e+01
   6.6828125e+01   4.5855469e+01   6.9138672e+01
   6.6828125e+01   4.5677734e+01   6.9316406e+01
   6.6472656e+01   4.6210938e+01   6.9138672e+01
   6.6650391e+01   4.6210938e+01   6.9316406e+01
   6.6472656e+01   4.6210938e+01   6.9494141e+01
   6.6294922e+01   4.6210938e+01   6.9316406e+01
   6.6472656e+01   4.6033203e+01   6.9671875e+01
   6.6650391e+01   4.5855469e+01   6.9671875e+01
   6.6472656e+01   4.5677734e+01   6.9671875e+01
   6.6294922e+01   4.5855469e+01   6.9671875e+01
   6.6117188e+01   4.6566406e+01   6.9494141e+01
   6.6117188e+01   4.6744141e+01   6.9316406e+01
   6.6117188e+01   4.6566406e+01   6.9138672e+01
   6.6117188e+01   4.6388672e+01   6.9316406e+01
   6.5761719e+01   4.6921875e+01   6.9138672e+01
   6.5939453e+01   4.6921875e+01   6.9316406e+01
   6.5761719e+01   4.6921875e+01   6.9494141e+01
   6.5583984e+01   4.6921875e+01   6.9316406e+01
   6.5761719e+01   4.6744141e+01   6.9671875e+01
   6.5939453e+01   4.6566406e+01   6.9671875e+01
   6.5761719e+01   4.6388672e+01   6.9671875e+01
   6.5583984e+01   4.6566406e+01   6.9671875e+01
   6.6828125e+01   4.6566406e+01   6.9494141e+01
   6.6828125e+01   4.6744141e+01   6.9316406e+01
   6.6828125e+01   4.6566406e+01   6.9138672e+01
   6.6828125e+01   4.6388672e+01   6.9316406e+01
   6.6472656e+01   4.6921875e+01   6.9138672e+01
   6.6650391e+01   4.6921875e+01   6.9316406e+01
   6.6472656e+01   4.6921875e+01   6.9494141e+01
   6.6294922e+01   4.6921875e+01   6.9316406e+01
   6.6472656e+01   4.6744141e+01   6.9671875e+01
   6.6650391e+01   4.6566406e+01   6.9671875e+01
   6.6472656e+01   4.6388672e+01   6.9671875e+01
   6.6294922e+01   4.6566406e+01   6.9671875e+01
   6.7539062e+01   4.5855469e+01   6.8783203e+01
   6.7539062e+01   4.6033203e+01   6.8605469e+01
   6.7539062e+01   4.5855469e+01   6.8427734e+01
   6.7539062e+01   4.5677734e+01   6.8605469e+01
   6.7183594e+01   4.6210938e+01   6.8427734e+01
   6.7361328e+01   4.6210938e+01   6.8605469e+01
   6.7183594e+01   4.6210938e+01   6.8783203e+01
   6.7005859e+01   4.6210938e+01   6.8605469e+01
   6.7183594e+01   4.6033203e+01   6.8960938e+01
   6.7361328e+01   4.5855469e+01   6.8960938e+01
   6.7183594e+01   4.5677734e+01   6.8960938e+01
   6.7005859e+01   4.5855469e+01   6.8960938e+01
   6.8250000e+01   4.5855469e+01   6.8783203e+01
   6.8250000e+01   4.6033203e+01   6.8605469e+01
   6.8250000e+01   4.5855469e+01   6.8427734e+01
   6.8250000e+01   4.5677734e+01   6.8605469e+01
   6.7894531e+01   4.6210938e+01   6.8427734e+01
   6.8072266e+01   4.6210938e+01   6.8605469e+01
   6.7894531e+01   4.6210938e+01   6.8783203e+01
   6.7716797e+01   4.6210938e+01   6.8605469e+01
   6.7894531e+01   4.6033203e+01   6.8960938e+01
   6.8072266e+01   4.5855469e+01   6.8960938e+01
   6.7894531e+01   4.5677734e+01   6.8960938e+01
   6.7716797e+01   4.5855469e+01   6.8960938e+01
   6.7539062e+01   4.6566406e+01   6.8783203e+01
   6.7539062e+01   4.6744141e+01   6.8605469e+01
   6.7539062e+01   4.6566406e+01   6.8427734e+01
   6.7539062e+01   4.6388672e+01   6.8605469e+01
   6.7183594e+01   4.6921875e+01   6.8427734e+01
   6.7361328e+01   4.6921875e+01   6.8605469e+01
   6.7183594e+01   4.6921875e+01   6.8783203e+01
   6.7005859e+01   4.6921875e+01   6.8605469e+01
   6.7183594e+01   4.6744141e+01   6.8960938e+01
   6.7361328e+01   4.6566406e+01   6.8960938e+01
   6.7183594e+01   4.6388672e+01   6.8960938e+01
   6.7005859e+01   4.6566406e+01   6.8960938e+01
   6.8250000e+01   4.6566406e+01   6.8783203e+01
   6.8250000e+01   4.6744141e+01   6.8605469e+01
   6.8250000e+01   4.6566406e+01   6.8427734e+01
   6.8250000e+01   4.6388672e+01   6.8605469e+01
   6.7894531e+01   4.6921875e+01   6.8427734e+01
   6.8072266e+01   4.6921875e+01   6.8605469e+01
   6.7894531e+01   4.6921875e+01   6.8783203e+01
   6.7716797e+01   4.6921875e+01   6.8605469e+01
   6.7894531e+01   4.6744141e+01   6.8960938e+01
   6.8072266e+01   4.6566406e+01   6.8960938e+01
   6.7894531e+01   4.6388672e+01   6.8960938e+01
   6.7716797e+01   4.6566406e+01   6.8960938e+01
   6.7539062e+01   4.5855469e+01   6.9494141e+01
   6.7539062e+01   4.6033203e+01   6.9316406e+01
   6.7539062e+01   4.5855469e+01   6.9138672e+01
   6.7539062e+01   4.5677734e+01   6.9316406e+01
   6.7183594e+01   4.6210938e+01   6.9138672e+01
   6.7361328e+01   4.6210938e+01   6.9316406e+01
   6.7183594e+01   4.6210938e+01   6.9494141e+01
   6.7005859e+01   4.6210938e+01   6.9316406e+01
   6.7183594e+01   4.6033203e+01   6.9671875e+01
   6.7361328e+01   4.5855469e+01   6.9671875e+01
   6.7183594e+01   4.5677734e+01   6.9671875e+01
   6.7005859e+01   4.5855469e+01   6.9671875e+01
   6.8182096e+01   4.5878104e+01   6.9471506e+01
   6.8425525e+01   4.5940972e+01   6.9181732e+01
   6.8225414e+01   4.5653149e+01   6.9242650e+01
   6.7894531e+01   4.6210938e+01   6.9138672e+01
   6.8072266e+01   4.6210938e+01   6.9316406e+01
   6.7894531e+01   4.6210938e+01   6.9494141e+01
   6.7716797e+01   4.6210938e+01   6.9316406e+01
   6.7873311e+01   4.6054424e+01   6.9783119e+01
   6.8049631e+01   4.5878104e+01   6.9603971e+01
   6.8000461e+01   4.5700369e+01   6.9603971e+01
   6.7692211e+01   4.5830884e+01   6.9647289e+01
   6.7539062e+01   4.6566406e+01   6.9494141e+01
   6.7539062e+01   4.6744141e+01   6.9316406e+01
   6.7539062e+01   4.6566406e+01   6.9138672e+01
   6.7539062e+01   4.6388672e+01   6.9316406e+01
   6.7183594e+01   4.6921875e+01   6.9138672e+01
   6.7361328e+01   4.6921875e+01   6.9316406e+01
   6.7183594e+01   4.6921875e+01   6.9494141e+01
   6.7005859e+01   4.6921875e+01   6.9316406e+01
   6.7183594e+01   4.6744141e+01   6.9671875e+01
   6.7361328e+01   4.6566406e+01   6.9671875e+01
   6.7183594e+01   4.6388672e+01   6.9671875e+01
   6.7005859e+01   4.6566406e+01   6.9671875e+01
   6.8250000e+01   4.6566406e+01   6.9494141e+01
   6.8250000e+01   4.6744141e+01   6.9316406e+01
   6.8250000e+01   4.6566406e+01   6.9138672e+01
   6.8250000e+01   4.6388672e+01   6.9316406e+01
   6.7894531e+01   4.6921875e+01   6.9138672e+01
   6.8072266e+01   4.6921875e+01   6.9316406e+01
   6.7894531e+01   4.6921875e+01   6.9494141e+01
   6.7716797e+01   4.6921875e+01   6.9316406e+01
   6.7894531e+01   4.6744141e+01   6.9671875e+01
   6.8072266e+01   4.6566406e+01   6.9671875e+01
   6.7894531e+01   4.6388672e+01   6.9671875e+01
   6.7716797e+01   4.6566406e+01   6.9671875e+01
   6.6117188e+01   4.7277344e+01   6.8783203e+01
   6.6117188e+01   4.7455078e+01   6.8605469e+01
   6.6117188e+01   4.7277344e+01   6.8427734e+01
   6.6117188e+01   4.7099609e+01   6.8605469e+01
   6.5761719e+01   4.7632812e+01   6.8427734e+01
   6.5939453e+01   4.7632812e+01   6.8605469e+01
   6.5761719e+01   4.7632812e+01   6.8783203e+01
   6.5583984e+01   4.7632812e+01   6.8605469e+01
   6.5761719e+01   4.7455078e+01   6.8960938e+01
   6.5939453e+01   4.7277344e+01   6.8960938e+01
   6.5761719e+01   4.7099609e+01   6.8960938e+01
   6.5583984e+01   4.7277344e+01   6.8960938e+01
   6.6828125e+01   4.7277344e+01   6.8783203e+01
   6.6828125e+01   4.7455078e+01   6.8605469e+01
   6.6828125e+01   4.7277344e+01   6.8427734e+01
   6.6828125e+01   4.7099609e+01   6.8605469e+01
   6.6472656e+01   4.7632812e+01   6.8427734e+01
   6.6650391e+01   4.7632812e+01   6.8605469e+01
   6.6472656e+01   4.7632812e+01   6.8783203e+01
   6.6294922e+01   4.7632812e+01   6.8605469e+01
   6.6472656e+01   4.7455078e+01   6.8960938e+01
   6.6650391e+01   4.7277344e+01   6.8960938e+01
   6.6472656e+01   4.7099609e+01   6.8960938e+01
   6.6294922e+01   4.7277344e+01   6.8960938e+01
   6.6117188e+01   4.7988281e+01   6.8783203e+01
   6.6117188e+01   4.8166016e+01   6.8605469e+01
   6.6117188e+01   4.7988281e+01   6.8427734e+01
   6.6117188e+01   4.7810547e+01   6.8605469e+01
   6.5761719e+01   4.8343750e+01   6.8427734e+01
   6.5939453e+01   4.8343750e+01   6.8605469e+01
   6.5761719e+01   4.8343750e+01   6.8783203e+01
   6.5583984e+01   4.8343750e+01   6.8605469e+01
   6.5761719e+01   4.8166016e+01   6.8960938e+01
   6.5939453e+01   4.7988281e+01   6.8960938e+01
   6.5761719e+01   4.7810547e+01   6.8960938e+01
   6.5583984e+01   4.7988281e+01   6.8960938e+01
   6.6828125e+01   4.7988281e+01   6.8783203e+01
   6.6828125e+01   4.8166016e+01   6.8605469e+01
   6.6828125e+01   4.7988281e+01   6.8427734e+01
   6.6828125e+01   4.7810547e+01   6.8605469e+01
   6.6472656e+01   4.8343750e+01   6.8427734e+01
   6.6650391e+01   4.8343750e+01   6.8605469e+01
   6.6472656e+01   4.8343750e+01   6.8783203e+01
   6.6294922e+01   4.8343750e+01   6.8605469e+01
   6.6472656e+01   4.8166016e+01   6.8960938e+01
   6.6650391e+01   4.7988281e+01   6.8960938e+01
   6.6472656e+01   4.7810547e+01   6.8960938e+01
   6.6294922e+01   4.7988281e+01   6.8960938e+01
   6.6117188e+01   4.7277344e+01   6.9494141e+01
   6.6117188e+01   4.7455078e+01   6.9316406e+01
   6.6117188e+01   4.7277344e+01   6.9138672e+01
   6.6117188e+01   4.7099609e+01   6.9316406e+01
   6.5761719e+01   4.7632812e+01   6.9138672e+01
   6.5939453e+01   4.7632812e+01   6.9316406e+01
   6.5761719e+01   4.7632812e+01   6.9494141e+01
   6.5583984e+01   4.7632812e+01   6.9316406e+01
   6.5761719e+01   4.7455078e+01   6.9671875e+01
   6.5939453e+01   4.7277344e+01   6.9671875e+01
   6.5761719e+01   4.7099609e+01   6.9671875e+01
   6.5583984e+01   4.7277344e+01   6.9671875e+01
   6.6828125e+01   4.7277344e+01   6.9494141e+01
   6.6828125e+01   4.7455078e+01   6.9316406e+01
   6.6828125e+01   4.7277344e+01   6.9138672e+01
   6.6828125e+01   4.7099609e+01   6.9316406e+01
   6.6472656e+01   4.7632812e+01   6.9138672e+01
   6.6650391e+01   4.7632812e+01   6.9316406e+01
   6.6472656e+01   4.7632812e+01   6.9494141e+01
   6.6294922e+01   4.7632812e+01   6.9316406e+01
   6.6472656e+01   4.7455078e+01   6.9671875e+01
   6.6650391e+01   4.7277344e+01   6.9671875e+01
   6.6472656e+01   4.7099609e+01   6.9671875e+01
   6.6294922e+01   4.7277344e+01   6.9671875e+01
   6.6117188e+01   4.7988281e+01   6.9494141e+01
   6.6117188e+01   4.8166016e+01   6.9316406e+01
   6.6117188e+01   4.7988281e+01   6.9138672e+01
   6.6117188e+01   4.7810547e+01   6.9316406e+01
   6.5761719e+01   4.8343750e+01   6.9138672e+01
   6.5939453e+01   4.8343750e+01   6.9316406e+01
   6.5761719e+01   4.8343750e+01   6.9494141e+01
   6.5583984e+01   4.8343750e+01   6.9316406e+01
   6.5761719e+01   4.8166016e+01   6.9671875e+01
   6.5939453e+01   4.7988281e+01   6.9671875e+01
   6.5761719e+01   4.7810547e+01   6.9671875e+01
   6.5583984e+01   4.7988281e+01   6.9671875e+01
   6.6828125e+01   4.7988281e+01   6.9494141e+01
   6.6828125e+01   4.8166016e+01   6.9316406e+01
   6.6828125e+01   4.7988281e+01   6.9138672e+01
   6.6828125e+01   4.7810547e+01   6.9316406e+01
   6.6472656e+01   4.8343750e+01   6.9138672e+01
   6.6650391e+01   4.8343750e+01   6.9316406e+01
   6.6472656e+01   4.8343750e+01   6.9494141e+01
   6.6294922e+01   4.8343750e+01   6.9316406e+01
   6.6472656e+01   4.8166016e+01   6.9671875e+01
   6.6650391e+01   4.7988281e+01   6.9671875e+01
   6.6472656e+01   4.7810547e+01   6.9671875e+01
   6.6294922e+01   4.7988281e+01   6.9671875e+01
   6.7539062e+01   4.7277344e+01   6.8783203e+01
   6.7539062e+01   4.7455078e+01   6.8605469e+01
   6.7539062e+01   4.7277344e+01   6.8427734e+01
   6.7539062e+01   4.7099609e+01   6.8605469e+01
   6.7183594e+01   4.7632812e+01   6.8427734e+01
   6.7361328e+01   4.7632812e+01   6.8605469e+01
   6.7183594e+01   4.7632812e+01   6.8783203e+01
   6.7005859e+01   4.7632812e+01   6.8605469e+01
   6.7183594e+01   4.7455078e+01   6.8960938e+01
   6.7361328e+01   4.7277344e+01   6.8960938e+01
   6.7183594e+01   4.7099609e+01   6.8960938e+01
   6.7005859e+01   4.7277344e+01   6.8960938e+01
   6.8250000e+01   4.7277344e+01   6.8783203e+01
   6.8250000e+01   4.7455078e+01   6.8605469e+01
   6.8250000e+01   4.7277344e+01   6.8427734e+01
   6.8250000e+01   4.7099609e+01   6.8605469e+01
   6.7894531e+01   4.7632812e+01   6.8427734e+01
   6.8072266e+01   4.7632812e+01   6.8605469e+01
   6.7894531e+01   4.7632812e+01   6.8783203e+01
   6.7716797e+01   4.7632812e+01   6.8605469e+01
   6.7894531e+01   4.7455078e+01   6.8960938e+01
   6.8072266e+01   4.7277344e+01   6.8960938e+01
   6.7894531e+01   4.7099609e+01   6.8960938e+01
   6.7716797e+01   4.7277344e+01   6.8960938e+01
   6.7539062e+01   4.7988281e+01   6.8783203e+01
   6.7539062e+01   4.8166016e+01   6.8605469e+01
   6.7539062e+01   4.7988281e+01   6.8427734e+01
   6.7539062e+01   4.7810547e+01   6.8605469e+01
   6.7183594e+01   4.8343750e+01   6.8427734e+01
   6.7361328e+01   4.8343750e+01   6.8605469e+01
   6.7183594e+01   4.8343750e+01   6.8783203e+01
   6.7005859e+01   4.8343750e+01   6.8605469e+01
   6.7183594e+01   4.8166016e+01   6.8960938e+01
   6.7361328e+01   4.7988281e+01   6.8960938e+01
   6.7183594e+01   4.7810547e+01   6.8960938e+01
   6.7005859e+01   4.7988281e+01   6.8960938e+01
   6.8250000e+01   4.7988281e+01   6.8783203e+01
   6.8250000e+01   4.8166016e+01   6.8605469e+01
   6.8250000e+01   4.7988281e+01   6.8427734e+01
   6.8250000e+01   4.7810547e+01   6.8605469e+01
   6.7894531e+01   4.8343750e+01   6.8427734e+01
   6.8072266e+01   4.8343750e+01   6.8605469e+01
   6.7894531e+01   4.8343750e+01   6.8783203e+01
   6.7716797e+01   4.8343750e+01   6.8605469e+01
   6.7894531e+01   4.8166016e+01   6.8960938e+01
   6.8072266e+01   4.7988281e+01   6.8960938e+01
   6.7894531e+01   4.7810547e+01   6.8960938e+01
   6.7716797e+01   4.7988281e+01   6.8960938e+01
   6.7539062e+01   4.7277344e+01   6.9494141e+01
   6.7539062e+01   4.7455078e+01   6.9316406e+01
   6.7539062e+01   4.7277344e+01   6.9138672e+01
   6.7539062e+01   4.7099609e+01   6.9316406e+01
   6.7183594e+01   4.7632812e+01   6.9138672e+01
   6.7361328e+01   4.7632812e+01   6.9316406e+01
   6.7183594e+01   4.7632812e+01   6.9494141e+01
   6.7005859e+01   4.7632812e+01   6.9316406e+01
   6.7183594e+01   4.7455078e+01   6.9671875e+01
   6.7361328e+01   4.7277344e+01   6.9671875e+01
   6.7183594e+01   4.7099609e+01   6.9671875e+01
   6.7005859e+01   4.7277344e+01   6.9671875e+01
   6.8250000e+01   4.7277344e+01   6.9494141e+01
   6.8250000e+01   4.7455078e+01   6.9316406e+01
   6.8250000e+01   4.7277344e+01   6.9138672e+01
   6.8250000e+01   4.7099609e+01   6.9316406e+01
   6.7894531e+01   4.7632812e+01   6.9138672e+01
   6.8072266e+01   4.7632812e+01   6.9316406e+01
   6.7894531e+01   4.7632812e+01   6.9494141e+01
   6.7716797e+01   4.7632812e+01   6.9316406e+01
   6.7894531e+01   4.7455078e+01   6.9671875e+01
   6.8072266e+01   4.7277344e+01   6.9671875e+01
   6.7894531e+01   4.7099609e+01   6.9671875e+01
   6.7716797e+01   4.7277344e+01   6.9671875e+01
   6.7539062e+01   4.7988281e+01   6.9494141e+01
   6.7539062e+01   4.8166016e+01   6.9316406e+01
   6.7539062e+01   4.7988281e+01   6.9138672e+01
   6.7539062e+01   4.7810547e+01   6.9316406e+01
   6.7183594e+01   4.8343750e+01   6.9138672e+01
   6.7361328e+01   4.8343750e+01   6.9316406e+01
   6.7183594e+01   4.8343750e+01   6.9494141e+01
   6.7005859e+01   4.8343750e+01   6.9316406e+01
   6.7183594e+01   4.8166016e+01   6.9671875e+01
   6.7361328e+01   4.7988281e+01   6.9671875e+01
   6.7183594e+01   4.7810547e+01   6.9671875e+01
   6.7005859e+01   4.7988281e+01   6.9671875e+01
   6.8250000e+01   4.7988281e+01   6.9494141e+01
   6.8250000e+01   4.8166016e+01   6.9316406e+01
   6.8250000e+01   4.7988281e+01   6.9138672e+01
   6.8250000e+01   4.7810547e+01   6.9316406e+01
   6.7894531e+01   4.8343750e+01   6.9138672e+01
   6.8072266e+01   4.8343750e+01   6.9316406e+01
   6.7894531e+01   4.8343750e+01   6.9494141e+01
   6.7716797e+01   4.8343750e+01   6.9316406e+01
   6.7894531e+01   4.8166016e+01   6.9671875e+01
   6.8072266e+01   4.7988281e+01   6.9671875e+01
   6.7894531e+01   4.7810547e+01   6.9671875e+01
   6.7716797e+01   4.7988281e+01   6.9671875e+01
   6.6117188e+01   4.5855469e+01   7.0205078e+01
   6.6117188e+01   4.6033203e+01   7.0027344e+01
   6.6117188e+01   4.5855469e+01   6.9849609e+01
   6.6117188e+01   4.5677734e+01   7.0027344e+01
   6.5761719e+01   4.6210938e+01   6.9849609e+01
   6.5939453e+01   4.6210938e+01   7.0027344e+01
   6.5761719e+01   4.6210938e+01   7.0205078e+01
   6.5583984e+01   4.6210938e+01   7.0027344e+01
   6.5761719e+01   4.6033203e+01   7.0382812e+01
   6.5939453e+01   4.5855469e+01   7.0382812e+01
   6.5761719e+01   4.5677734e+01   7.0382812e+01
   6.5583984e+01   4.5855469e+01   7.0382812e+01
   6.6828125e+01   4.5855469e+01   7.0205078e+01
   6.6828125e+01   4.6033203e+01   7.0027344e+01
   6.6828125e+01   4.5855469e+01   6.9849609e+01
   6.6828125e+01   4.5677734e+01   7.0027344e+01
   6.6472656e+01   4.6210938e+01   6.9849609e+01
   6.6650391e+01   4.6210938e+01   7.0027344e+01
   6.6472656e+01   4.6210938e+01   7.0205078e+01
   6.6294922e+01   4.6210938e+01   7.0027344e+01
   6.6472656e+01   4.6033203e+01   7.0382812e+01
   6.6650391e+01   4.5855469e+01   7.0382812e+01
   6.6472656e+01   4.5677734e+01   7.0382812e+01
   6.6294922e+01   4.5855469e+01   7.0382812e+01
   6.6117188e+01   4.6566406e+01   7.0205078e+01
   6.6117188e+01   4.6744141e+01   7.0027344e+01
   6.6117188e+01   4.6566406e+01   6.9849609e+01
   6.6117188e+01   4.6388672e+01   7.0027344e+01
   6.5761719e+01   4.6921875e+01   6.9849609e+01
   6.5939453e+01   4.6921875e+01   7.0027344e+01
   6.5761719e+01   4.6921875e+01   7.0205078e+01
   6.5583984e+01   4.6921875e+01   7.0027344e+01
   6.5761719e+01   4.6744141e+01   7.0382812e+01
   6.5939453e+01   4.6566406e+01   7.0382812e+01
   6.5761719e+01   4.6388672e+01   7.0382812e+01
   6.5583984e+01   4.6566406e+01   7.0382812e+01
   6.6828125e+01   4.6566406e+01   7.0205078e+01
   6.6828125e+01   4.6744141e+01   7.0027344e+01
   6.6828125e+01   4.6566406e+01   6.9849609e+01
   6.6828125e+01   4.6388672e+01   7.0027344e+01
   6.6472656e+01   4.6921875e+01   6.9849609e+01
   6.6650391e+01   4.6921875e+01   7.0027344e+01
   6.6472656e+01   4.6921875e+01   7.0205078e+01
   6.6294922e+01   4.6921875e+01   7.0027344e+01
   6.6472656e+01   4.6744141e+01   7.0382812e+01
   6.6650391e+01   4.6566406e+01   7.0382812e+01
   6.6472656e+01   4.6388672e+01   7.0382812e+01
   6.6294922e+01   4.6566406e+01   7.0382812e+01
   6.6117188e+01   4.5855469e+01   7.0916016e+01
   6.6117188e+01   4.6033203e+01   7.0738281e+01
   6.6117188e+01   4.5855469e+01   7.0560547e+01
   6.6117188e+01   4.5677734e+01   7.0738281e+01
   6.5761719e+01   4.6210938e+01   7.0560547e+01
   6.5939453e+01   4.6210938e+01   7.0738281e+01
   6.5761719e+01   4.6210938e+01   7.0916016e+01
   6.5583984e+01   4.6210938e+01   7.0738281e+01
   6.5761719e+01   4.6033203e+01   7.1093750e+01
   6.5939453e+01   4.5855469e+01   7.1093750e+01
   6.5761719e+01   4.5677734e+01   7.1093750e+01
   6.5583984e+01   4.5855469e+01   7.1093750e+01
   6.7003650e+01   4.5940972e+01   7.0603607e+01
   6.6472656e+01   4.6210938e+01   7.0560547e+01
   6.6650391e+01   4.6210938e+01   7.0738281e+01
   6.6472656e+01   4.6210938e+01   7.0916016e+01
   6.6294922e+01   4.6210938e+01   7.0738281e+01
   6.6261408e+01   4.5821955e+01   7.1060236e+01
   6.6117188e+01   4.6566406e+01   7.0916016e+01
   6.6117188e+01   4.6744141e+01   7.0738281e+01
   6.6117188e+01   4.6566406e+01   7.0560547e+01
   6.6117188e+01   4.6388672e+01   7.0738281e+01
   6.5761719e+01   4.6921875e+01   7.0560547e+01
   6.5939453e+01   4.6921875e+01   7.0738281e+01
   6.5761719e+01   4.6921875e+01   7.0916016e+01
   6.5583984e+01   4.6921875e+01   7.0738281e+01
   6.5761719e+01   4.6744141e+01   7.1093750e+01
   6.5939453e+01   4.6566406e+01   7.1093750e+01
   6.5761719e+01   4.6388672e+01   7.1093750e+01
   6.5583984e+01   4.6566406e+01   7.1093750e+01
   6.6828125e+01   4.6566406e+01   7.0916016e+01
   6.6828125e+01   4.6744141e+01   7.0738281e+01
   6.6828125e+01   4.6566406e+01   7.0560547e+01
   6.6828125e+01   4.6388672e+01   7.0738281e+01
   6.6472656e+01   4.6921875e+01   7.0560547e+01
   6.6650391e+01   4.6921875e+01   7.0738281e+01
   6.6472656e+01   4.6921875e+01   7.0916016e+01
   6.6294922e+01   4.6921875e+01   7.0738281e+01
   6.6485115e+01   4.6744649e+01   7.1105189e+01
   6.6662850e+01   4.6566915e+01   7.1105189e+01
   6.6485115e+01   4.6389181e+01   7.1105189e+01
   6.6307381e+01   4.6566915e+01   7.1105189e+01
   6.7471158e+01   4.5878104e+01   7.0182443e+01
   6.7714588e+01   4.5940972e+01   6.9892670e+01
   6.7514477e+01   4.5653149e+01   6.9953588e+01
   6.7183594e+01   4.6210938e+01   6.9849609e+01
   6.7361328e+01   4.6210938e+01   7.0027344e+01
   6.7183594e+01   4.6210938e+01   7.0205078e+01
   6.7005859e+01   4.6210938e+01   7.0027344e+01
   6.7162373e+01   4.6054424e+01   7.0494057e+01
   6.7338693e+01   4.5878104e+01   7.0314908e+01
   6.6981273e+01   4.5830884e+01   7.0358227e+01
   6.7539062e+01   4.6566406e+01   7.0205078e+01
   6.7539062e+01   4.6744141e+01   7.0027344e+01
   6.7539062e+01   4.6566406e+01   6.9849609e+01
   6.7539062e+01   4.6388672e+01   7.0027344e+01
   6.7183594e+01   4.6921875e+01   6.9849609e+01
   6.7361328e+01   4.6921875e+01   7.0027344e+01
   6.7183594e+01   4.6921875e+01   7.0205078e+01
   6.7005859e+01   4.6921875e+01   7.0027344e+01
   6.7183594e+01   4.6744141e+01   7.0382812e+01
   6.7361328e+01   4.6566406e+01   7.0382812e+01
   6.7183594e+01   4.6388672e+01   7.0382812e+01
   6.7005859e+01   4.6566406e+01   7.0382812e+01
   6.7985607e+01   4.6569771e+01   7.0073150e+01
   6.8053254e+01   4.6679858e+01   7.0012232e+01
   6.8183768e+01   4.6632639e+01   6.9783377e+01
   6.8049889e+01   4.6456318e+01   6.9959697e+01
   6.7894531e+01   4.6921875e+01   6.9849609e+01
   6.7716797e+01   4.6921875e+01   7.0027344e+01
   6.7724320e+01   4.6834958e+01   7.0341166e+01
   6.7940338e+01   4.6569771e+01   7.0118420e+01
   6.7826885e+01   4.6456318e+01   7.0182701e+01
   6.7650564e+01   4.6632639e+01   7.0361850e+01
   6.7272719e+01   4.6567820e+01   7.0782137e+01
   6.7518100e+01   4.6632639e+01   7.0494314e+01
   6.7338951e+01   4.6456318e+01   7.0670635e+01
   6.7183594e+01   4.6921875e+01   7.0560547e+01
   6.7005859e+01   4.6921875e+01   7.0738281e+01
   6.6984896e+01   4.6810373e+01   7.1027518e+01
   6.7227449e+01   4.6567820e+01   7.0827406e+01
   6.7644381e+01   4.6932754e+01   7.0438961e+01
   6.7595211e+01   4.6932754e+01   7.0484230e+01
   6.6117188e+01   4.7277344e+01   7.0205078e+01
   6.6117188e+01   4.7455078e+01   7.0027344e+01
   6.6117188e+01   4.7277344e+01   6.9849609e+01
   6.6117188e+01   4.7099609e+01   7.0027344e+01
   6.5761719e+01   4.7632812e+01   6.9849609e+01
   6.5939453e+01   4.7632812e+01   7.0027344e+01
   6.5761719e+01   4.7632812e+01   7.0205078e+01
   6.5583984e+01   4.7632812e+01   7.0027344e+01
   6.5761719e+01   4.7455078e+01   7.0382812e+01
   6.5939453e+01   4.7277344e+01   7.0382812e+01
   6.5761719e+01   4.7099609e+01   7.0382812e+01
   6.5583984e+01   4.7277344e+01   7.0382812e+01
   6.6828125e+01   4.7277344e+01   7.0205078e+01
   6.6828125e+01   4.7455078e+01   7.0027344e+01
   6.6828125e+01   4.7277344e+01   6.9849609e+01
   6.6828125e+01   4.7099609e+01   7.0027344e+01
   6.6472656e+01   4.7632812e+01   6.9849609e+01
   6.6650391e+01   4.7632812e+01   7.0027344e+01
   6.6472656e+01   4.7632812e+01   7.0205078e+01
   6.6294922e+01   4.7632812e+01   7.0027344e+01
   6.6472656e+01   4.7455078e+01   7.0382812e+01
