   6.9316406e+01   4.8343750e+01   6.7005859e+01
   6.9494141e+01   4.8343750e+01   6.7183594e+01
   6.9316406e+01   4.8343750e+01   6.7361328e+01
   6.9138672e+01   4.8343750e+01   6.7183594e+01
   6.9316406e+01   4.8166016e+01   6.7539062e+01
   6.9494141e+01   4.7988281e+01   6.7539062e+01
   6.9316406e+01   4.7810547e+01   6.7539062e+01
   6.9138672e+01   4.7988281e+01   6.7539062e+01
   6.8960938e+01   4.7277344e+01   6.8072266e+01
   6.8960938e+01   4.7455078e+01   6.7894531e+01
   6.8960938e+01   4.7277344e+01   6.7716797e+01
   6.8960938e+01   4.7099609e+01   6.7894531e+01
   6.8605469e+01   4.7632812e+01   6.7716797e+01
   6.8783203e+01   4.7632812e+01   6.7894531e+01
   6.8605469e+01   4.7632812e+01   6.8072266e+01
   6.8427734e+01   4.7632812e+01   6.7894531e+01
   6.8605469e+01   4.7455078e+01   6.8250000e+01
   6.8783203e+01   4.7277344e+01   6.8250000e+01
   6.8605469e+01   4.7099609e+01   6.8250000e+01
   6.8427734e+01   4.7277344e+01   6.8250000e+01
   6.9671875e+01   4.7277344e+01   6.8072266e+01
   6.9671875e+01   4.7455078e+01   6.7894531e+01
   6.9671875e+01   4.7277344e+01   6.7716797e+01
   6.9671875e+01   4.7099609e+01   6.7894531e+01
   6.9316406e+01   4.7632812e+01   6.7716797e+01
   6.9494141e+01   4.7632812e+01   6.7894531e+01
   6.9316406e+01   4.7632812e+01   6.8072266e+01
   6.9138672e+01   4.7632812e+01   6.7894531e+01
   6.9316406e+01   4.7455078e+01   6.8250000e+01
   6.9494141e+01   4.7277344e+01   6.8250000e+01
   6.9316406e+01   4.7099609e+01   6.8250000e+01
   6.9138672e+01   4.7277344e+01   6.8250000e+01
   6.8960938e+01   4.7988281e+01   6.8072266e+01
   6.8960938e+01   4.8166016e+01   6.7894531e+01
   6.8960938e+01   4.7988281e+01   6.7716797e+01
   6.8960938e+01   4.7810547e+01   6.7894531e+01
   6.8605469e+01   4.8343750e+01   6.7716797e+01
   6.8783203e+01   4.8343750e+01   6.7894531e+01
   6.8605469e+01   4.8343750e+01   6.8072266e+01
   6.8427734e+01   4.8343750e+01   6.7894531e+01
   6.8605469e+01   4.8166016e+01   6.8250000e+01
   6.8783203e+01   4.7988281e+01   6.8250000e+01
   6.8605469e+01   4.7810547e+01   6.8250000e+01
   6.8427734e+01   4.7988281e+01   6.8250000e+01
   6.9671875e+01   4.7988281e+01   6.8072266e+01
   6.9671875e+01   4.8166016e+01   6.7894531e+01
   6.9671875e+01   4.7988281e+01   6.7716797e+01
   6.9671875e+01   4.7810547e+01   6.7894531e+01
   6.9316406e+01   4.8343750e+01   6.7716797e+01
   6.9494141e+01   4.8343750e+01   6.7894531e+01
   6.9316406e+01   4.8343750e+01   6.8072266e+01
   6.9138672e+01   4.8343750e+01   6.7894531e+01
   6.9316406e+01   4.8166016e+01   6.8250000e+01
   6.9494141e+01   4.7988281e+01   6.8250000e+01
   6.9316406e+01   4.7810547e+01   6.8250000e+01
   6.9138672e+01   4.7988281e+01   6.8250000e+01
   7.0382812e+01   4.7277344e+01   6.7361328e+01
   7.0382812e+01   4.7455078e+01   6.7183594e+01
   7.0382812e+01   4.7277344e+01   6.7005859e+01
   7.0382812e+01   4.7099609e+01   6.7183594e+01
   7.0027344e+01   4.7632812e+01   6.7005859e+01
   7.0205078e+01   4.7632812e+01   6.7183594e+01
   7.0027344e+01   4.7632812e+01   6.7361328e+01
   6.9849609e+01   4.7632812e+01   6.7183594e+01
   7.0027344e+01   4.7455078e+01   6.7539062e+01
   7.0205078e+01   4.7277344e+01   6.7539062e+01
   7.0027344e+01   4.7099609e+01   6.7539062e+01
   6.9849609e+01   4.7277344e+01   6.7539062e+01
   7.0985592e+01   4.7287161e+01   6.7302340e+01
   7.1019994e+01   4.7430493e+01   6.7291473e+01
   7.1126469e+01   4.7355332e+01   6.7038578e+01
   7.1060236e+01   4.7066096e+01   6.7061213e+01
   7.0738281e+01   4.7632812e+01   6.7005859e+01
   7.0560547e+01   4.7632812e+01   6.7183594e+01
   7.0670377e+01   4.7477713e+01   6.7644992e+01
   7.0857027e+01   4.7287161e+01   6.7430904e+01
   7.0666875e+01   4.7010510e+01   6.7558893e+01
   7.0525912e+01   4.7242709e+01   6.7632992e+01
   7.0382812e+01   4.7988281e+01   6.7361328e+01
   7.0382812e+01   4.8166016e+01   6.7183594e+01
   7.0382812e+01   4.7988281e+01   6.7005859e+01
   7.0382812e+01   4.7810547e+01   6.7183594e+01
   7.0027344e+01   4.8343750e+01   6.7005859e+01
   7.0205078e+01   4.8343750e+01   6.7183594e+01
   7.0027344e+01   4.8343750e+01   6.7361328e+01
   6.9849609e+01   4.8343750e+01   6.7183594e+01
   7.0027344e+01   4.8166016e+01   6.7539062e+01
   7.0205078e+01   4.7988281e+01   6.7539062e+01
   7.0027344e+01   4.7810547e+01   6.7539062e+01
   6.9849609e+01   4.7988281e+01   6.7539062e+01
   7.1025846e+01   4.8010916e+01   6.7338693e+01
   7.1115088e+01   4.8099409e+01   6.7250201e+01
   7.1137723e+01   4.8076774e+01   6.7049832e+01
   7.1071115e+01   4.7787912e+01   6.7115689e+01
   7.0738281e+01   4.8343750e+01   6.7005859e+01
   7.0916016e+01   4.8343750e+01   6.7183594e+01
   7.0738281e+01   4.8343750e+01   6.7361328e+01
   7.0560547e+01   4.8343750e+01   6.7183594e+01
   7.0717061e+01   4.8187235e+01   6.7650307e+01
   7.0893381e+01   4.8010916e+01   6.7471158e+01
   7.0736609e+01   4.7721680e+01   6.7582660e+01
   7.0537912e+01   4.7965646e+01   6.7648893e+01
   7.0228514e+01   4.7297589e+01   6.7984994e+01
   7.0525117e+01   4.7354211e+01   6.7748395e+01
   7.0348178e+01   4.7064975e+01   6.7750127e+01
   7.0027344e+01   4.7632812e+01   6.7716797e+01
   7.0237797e+01   4.7710801e+01   6.7927250e+01
   6.9849609e+01   4.7632812e+01   6.7894531e+01
   6.9999125e+01   4.7544834e+01   6.8270951e+01
   7.0117807e+01   4.7297589e+01   6.8073861e+01
   7.0023951e+01   4.7153368e+01   6.8107375e+01
   6.9794256e+01   4.7221990e+01   6.8194646e+01
   7.0647742e+01   4.7632812e+01   6.7671527e+01
   7.0302449e+01   4.8010407e+01   6.8037631e+01
   7.0560289e+01   4.8075733e+01   6.7761809e+01
   7.0492643e+01   4.7787912e+01   6.7826627e+01
   7.0027344e+01   4.8343750e+01   6.7716797e+01
   7.0192619e+01   4.8343241e+01   6.7882531e+01
   7.0014885e+01   4.8343241e+01   6.8060266e+01
   6.9849609e+01   4.8343750e+01   6.7894531e+01
   6.9992250e+01   4.8188142e+01   6.8215365e+01
   7.0169984e+01   4.8010407e+01   6.8170096e+01
   7.0133273e+01   4.7833182e+01   6.8182096e+01
   6.9825023e+01   4.7963696e+01   6.8225414e+01
   7.1859910e+01   4.5875755e+01   6.5993365e+01
   7.1792264e+01   4.6032269e+01   6.5747984e+01
   7.1792264e+01   4.5854534e+01   6.5570250e+01
   7.1792264e+01   4.5676800e+01   6.5697619e+01
   7.1449219e+01   4.6210938e+01   6.5583984e+01
   7.1626953e+01   4.6210938e+01   6.5761719e+01
   7.1449219e+01   4.6210938e+01   6.5939453e+01
   7.1271484e+01   4.6210938e+01   6.5761719e+01
   7.1449219e+01   4.6033203e+01   6.6117188e+01
   7.1694600e+01   4.5876689e+01   6.6184834e+01
   7.1556562e+01   4.5698955e+01   6.6095967e+01
   7.1271484e+01   4.5855469e+01   6.6117188e+01
   7.2135867e+01   4.6209068e+01   6.5556717e+01
   7.1969998e+01   4.6210003e+01   6.5747984e+01
   7.1946873e+01   4.6099916e+01   6.6035807e+01
   7.1902352e+01   4.6011049e+01   6.6035807e+01
   7.1804688e+01   4.6566406e+01   6.5939453e+01
   7.1804688e+01   4.6744141e+01   6.5761719e+01
   7.1804688e+01   4.6566406e+01   6.5583984e+01
   7.1804688e+01   4.6388672e+01   6.5761719e+01
   7.1449219e+01   4.6921875e+01   6.5583984e+01
   7.1626953e+01   4.6921875e+01   6.5761719e+01
   7.1449219e+01   4.6921875e+01   6.5939453e+01
   7.1271484e+01   4.6921875e+01   6.5761719e+01
   7.1449219e+01   4.6744141e+01   6.6117188e+01
   7.1626953e+01   4.6566406e+01   6.6117188e+01
   7.1449219e+01   4.6388672e+01   6.6117188e+01
   7.1271484e+01   4.6566406e+01   6.6117188e+01
   7.2252121e+01   4.6569328e+01   6.5809162e+01
   7.2340990e+01   4.6658195e+01   6.5720296e+01
   7.2437154e+01   4.6632078e+01   6.5503845e+01
   7.2303939e+01   4.6454344e+01   6.5681578e+01
   7.2160156e+01   4.6921875e+01   6.5583984e+01
   7.1982422e+01   4.6921875e+01   6.5761719e+01
   7.2019988e+01   4.6824905e+01   6.6086789e+01
   7.2207600e+01   4.6569328e+01   6.5858332e+01
   7.1984922e+01   4.6302129e+01   6.6075166e+01
   7.1918141e+01   4.6502124e+01   6.6102076e+01
   7.1737041e+01   4.6011983e+01   6.6227275e+01
   7.1449219e+01   4.6210938e+01   6.6294922e+01
   7.1560721e+01   4.6277170e+01   6.6406424e+01
   7.1271484e+01   4.6210938e+01   6.6472656e+01
   7.1249107e+01   4.6100851e+01   6.6760479e+01
   7.1203838e+01   4.6011983e+01   6.6760479e+01
   7.1895016e+01   4.6214303e+01   6.6162994e+01
   7.1554537e+01   4.6577285e+01   6.6528805e+01
   7.1822861e+01   4.6646573e+01   6.6263926e+01
   7.1789576e+01   4.6324390e+01   6.6275910e+01
   7.1449219e+01   4.6921875e+01   6.6294922e+01
   7.1626064e+01   4.6989791e+01   6.6471768e+01
   7.1271484e+01   4.6921875e+01   6.6472656e+01
   7.1305887e+01   4.6798605e+01   6.6773660e+01
   7.1505367e+01   4.6577285e+01   6.6577975e+01
   7.1407572e+01   4.6479489e+01   6.6657914e+01
   7.1207203e+01   4.6502124e+01   6.6763844e+01
   7.1960170e+01   4.6942822e+01   6.6204705e+01
   7.1892205e+01   4.6942822e+01   6.6291203e+01
   7.2607592e+01   4.6924797e+01   6.5453693e+01
   7.1804688e+01   4.7277344e+01   6.5939453e+01
   7.1804688e+01   4.7455078e+01   6.5761719e+01
   7.1804688e+01   4.7277344e+01   6.5583984e+01
   7.1804688e+01   4.7099609e+01   6.5761719e+01
   7.1449219e+01   4.7632812e+01   6.5583984e+01
   7.1626953e+01   4.7632812e+01   6.5761719e+01
   7.1449219e+01   4.7632812e+01   6.5939453e+01
   7.1271484e+01   4.7632812e+01   6.5761719e+01
   7.1449219e+01   4.7455078e+01   6.6117188e+01
   7.1626953e+01   4.7277344e+01   6.6117188e+01
   7.1449219e+01   4.7099609e+01   6.6117188e+01
   7.1271484e+01   4.7277344e+01   6.6117188e+01
   7.2316336e+01   4.7297594e+01   6.5849934e+01
   7.2405203e+01   4.7386461e+01   6.5761066e+01
   7.2485924e+01   4.7357411e+01   6.5554282e+01
   7.2451941e+01   4.7035925e+01   6.5570665e+01
   7.2160156e+01   4.7632812e+01   6.5583984e+01
   7.1982422e+01   4.7632812e+01   6.5761719e+01
   7.2092252e+01   4.7477713e+01   6.6203018e+01
   7.2248371e+01   4.7297594e+01   6.5958398e+01
   7.2049734e+01   4.7030992e+01   6.6116535e+01
   7.1947787e+01   4.7242709e+01   6.6191018e+01
   7.1804688e+01   4.7988281e+01   6.5939453e+01
   7.1804688e+01   4.8166016e+01   6.5761719e+01
   7.1804688e+01   4.7988281e+01   6.5583984e+01
   7.1804688e+01   4.7810547e+01   6.5761719e+01
   7.1449219e+01   4.8343750e+01   6.5583984e+01
   7.1626953e+01   4.8343750e+01   6.5761719e+01
   7.1449219e+01   4.8343750e+01   6.5939453e+01
   7.1271484e+01   4.8343750e+01   6.5761719e+01
   7.1449219e+01   4.8166016e+01   6.6117188e+01
   7.1626953e+01   4.7988281e+01   6.6117188e+01
   7.1449219e+01   4.7810547e+01   6.6117188e+01
   7.1271484e+01   4.7988281e+01   6.6117188e+01
   7.2425086e+01   4.7988281e+01   6.5894184e+01
   7.2513150e+01   4.8077952e+01   6.5804514e+01
   7.2546420e+01   4.8065952e+01   6.5614779e+01
   7.2480990e+01   4.7775912e+01   6.5657814e+01
   7.2160156e+01   4.8343750e+01   6.5583984e+01
   7.1982422e+01   4.8343750e+01   6.5761719e+01
   7.2158484e+01   4.8254883e+01   6.6160785e+01
   7.2292621e+01   4.7988281e+01   6.6026648e+01
   7.2158484e+01   4.7721680e+01   6.6160785e+01
   7.1959787e+01   4.7965646e+01   6.6227018e+01
   7.1696529e+01   4.7287161e+01   6.6591402e+01
   7.1964850e+01   4.7354211e+01   6.6326520e+01
   7.1824518e+01   4.7010510e+01   6.6401250e+01
   7.1449219e+01   4.7632812e+01   6.6294922e+01
   7.1668600e+01   4.7719729e+01   6.6514303e+01
   7.1271484e+01   4.7632812e+01   6.6472656e+01
   7.1381314e+01   4.7477713e+01   6.6805490e+01
   7.1567965e+01   4.7287161e+01   6.6719967e+01
   7.1470170e+01   4.7189365e+01   6.6799906e+01
   7.1237971e+01   4.7243830e+01   6.6794611e+01
   7.2069617e+01   4.7632812e+01   6.6249652e+01
   7.1714148e+01   4.7988281e+01   6.6605121e+01
   7.1980750e+01   4.8077148e+01   6.6338520e+01
   7.1914518e+01   4.7787912e+01   6.6404752e+01
   7.1449219e+01   4.8343750e+01   6.6294922e+01
   7.1271484e+01   4.8343750e+01   6.6472656e+01
   7.1382438e+01   4.8188276e+01   6.6805865e+01
   7.1581684e+01   4.7988281e+01   6.6737586e+01
   7.1492816e+01   4.7899414e+01   6.6826453e+01
   7.1248850e+01   4.7965646e+01   6.6805490e+01
   7.2069617e+01   4.8343750e+01   6.6249652e+01
   7.1937152e+01   4.8343750e+01   6.6382117e+01
   7.2667709e+01   4.7653062e+01   6.5494465e+01
   7.2760350e+01   4.8343750e+01   6.5537109e+01
   7.1184826e+01   4.6214303e+01   6.6873932e+01
   7.1139557e+01   4.6214303e+01   6.6919201e+01
   7.1272373e+01   4.6942826e+01   6.6917881e+01
   7.1183506e+01   4.6942826e+01   6.7006748e+01
   7.1358680e+01   4.7632812e+01   6.6960590e+01
   7.1226215e+01   4.7632812e+01   6.7093055e+01
   6.8960938e+01   4.8699219e+01   6.5939453e+01
   6.8960938e+01   4.8876953e+01   6.5761719e+01
   6.8960938e+01   4.8699219e+01   6.5583984e+01
   6.8960938e+01   4.8521484e+01   6.5761719e+01
   6.8783203e+01   4.9054688e+01   6.5761719e+01
   6.8605469e+01   4.9054688e+01   6.5939453e+01
   6.8605469e+01   4.8876953e+01   6.6117188e+01
   6.8783203e+01   4.8699219e+01   6.6117188e+01
   6.8605469e+01   4.8521484e+01   6.6117188e+01
   6.8427734e+01   4.8699219e+01   6.6117188e+01
   6.9671875e+01   4.8699219e+01   6.5939453e+01
   6.9671875e+01   4.8876953e+01   6.5761719e+01
   6.9671875e+01   4.8699219e+01   6.5583984e+01
   6.9671875e+01   4.8521484e+01   6.5761719e+01
   6.9316406e+01   4.9054688e+01   6.5583984e+01
   6.9494141e+01   4.9054688e+01   6.5761719e+01
   6.9316406e+01   4.9054688e+01   6.5939453e+01
   6.9138672e+01   4.9054688e+01   6.5761719e+01
   6.9316406e+01   4.8876953e+01   6.6117188e+01
   6.9494141e+01   4.8699219e+01   6.6117188e+01
   6.9316406e+01   4.8521484e+01   6.6117188e+01
   6.9138672e+01   4.8699219e+01   6.6117188e+01
   6.8960938e+01   4.9410156e+01   6.5939453e+01
   6.8960938e+01   4.9232422e+01   6.5761719e+01
   6.8783203e+01   4.9410156e+01   6.6117188e+01
   6.8605469e+01   4.9232422e+01   6.6117188e+01
   6.9671875e+01   4.9410156e+01   6.5939453e+01
   6.9671875e+01   4.9587891e+01   6.5761719e+01
   6.9671875e+01   4.9410156e+01   6.5583984e+01
   6.9671875e+01   4.9232422e+01   6.5761719e+01
   6.9316406e+01   4.9765625e+01   6.5583984e+01
   6.9494141e+01   4.9765625e+01   6.5761719e+01
   6.9316406e+01   4.9765625e+01   6.5939453e+01
   6.9138672e+01   4.9765625e+01   6.5761719e+01
   6.9316406e+01   4.9587891e+01   6.6117188e+01
   6.9494141e+01   4.9410156e+01   6.6117188e+01
   6.9316406e+01   4.9232422e+01   6.6117188e+01
   6.9138672e+01   4.9410156e+01   6.6117188e+01
   6.8960938e+01   4.8699219e+01   6.6650391e+01
   6.8960938e+01   4.8876953e+01   6.6472656e+01
   6.8960938e+01   4.8699219e+01   6.6294922e+01
   6.8960938e+01   4.8521484e+01   6.6472656e+01
   6.8605469e+01   4.9054688e+01   6.6294922e+01
   6.8783203e+01   4.9054688e+01   6.6472656e+01
   6.8605469e+01   4.9054688e+01   6.6650391e+01
   6.8427734e+01   4.9054688e+01   6.6472656e+01
   6.8605469e+01   4.8876953e+01   6.6828125e+01
   6.8783203e+01   4.8699219e+01   6.6828125e+01
   6.8605469e+01   4.8521484e+01   6.6828125e+01
   6.8427734e+01   4.8699219e+01   6.6828125e+01
   6.9671875e+01   4.8699219e+01   6.6650391e+01
   6.9671875e+01   4.8876953e+01   6.6472656e+01
   6.9671875e+01   4.8699219e+01   6.6294922e+01
   6.9671875e+01   4.8521484e+01   6.6472656e+01
   6.9316406e+01   4.9054688e+01   6.6294922e+01
   6.9494141e+01   4.9054688e+01   6.6472656e+01
   6.9316406e+01   4.9054688e+01   6.6650391e+01
   6.9138672e+01   4.9054688e+01   6.6472656e+01
   6.9316406e+01   4.8876953e+01   6.6828125e+01
   6.9494141e+01   4.8699219e+01   6.6828125e+01
   6.9316406e+01   4.8521484e+01   6.6828125e+01
   6.9138672e+01   4.8699219e+01   6.6828125e+01
   6.8960938e+01   4.9410156e+01   6.6650391e+01
   6.8960938e+01   4.9587891e+01   6.6472656e+01
   6.8960938e+01   4.9410156e+01   6.6294922e+01
   6.8960938e+01   4.9232422e+01   6.6472656e+01
   6.8783203e+01   4.9765625e+01   6.6472656e+01
   6.8605469e+01   4.9765625e+01   6.6650391e+01
   6.8605469e+01   4.9587891e+01   6.6828125e+01
   6.8783203e+01   4.9410156e+01   6.6828125e+01
   6.8605469e+01   4.9232422e+01   6.6828125e+01
   6.8427734e+01   4.9410156e+01   6.6828125e+01
   6.9671875e+01   4.9410156e+01   6.6650391e+01
   6.9671875e+01   4.9587891e+01   6.6472656e+01
   6.9671875e+01   4.9410156e+01   6.6294922e+01
   6.9671875e+01   4.9232422e+01   6.6472656e+01
   6.9316406e+01   4.9765625e+01   6.6294922e+01
   6.9494141e+01   4.9765625e+01   6.6472656e+01
   6.9316406e+01   4.9765625e+01   6.6650391e+01
   6.9138672e+01   4.9765625e+01   6.6472656e+01
   6.9316406e+01   4.9587891e+01   6.6828125e+01
   6.9494141e+01   4.9410156e+01   6.6828125e+01
   6.9316406e+01   4.9232422e+01   6.6828125e+01
   6.9138672e+01   4.9410156e+01   6.6828125e+01
   7.0382812e+01   4.8699219e+01   6.5939453e+01
   7.0382812e+01   4.8876953e+01   6.5761719e+01
   7.0382812e+01   4.8699219e+01   6.5583984e+01
   7.0382812e+01   4.8521484e+01   6.5761719e+01
   7.0027344e+01   4.9054688e+01   6.5583984e+01
   7.0205078e+01   4.9054688e+01   6.5761719e+01
   7.0027344e+01   4.9054688e+01   6.5939453e+01
   6.9849609e+01   4.9054688e+01   6.5761719e+01
   7.0027344e+01   4.8876953e+01   6.6117188e+01
   7.0205078e+01   4.8699219e+01   6.6117188e+01
   7.0027344e+01   4.8521484e+01   6.6117188e+01
   6.9849609e+01   4.8699219e+01   6.6117188e+01
   7.1093750e+01   4.8699219e+01   6.5939453e+01
   7.1093750e+01   4.8876953e+01   6.5761719e+01
   7.1093750e+01   4.8699219e+01   6.5583984e+01
   7.1093750e+01   4.8521484e+01   6.5761719e+01
   7.0738281e+01   4.9054688e+01   6.5583984e+01
   7.0916016e+01   4.9054688e+01   6.5761719e+01
   7.0738281e+01   4.9054688e+01   6.5939453e+01
   7.0560547e+01   4.9054688e+01   6.5761719e+01
   7.0738281e+01   4.8876953e+01   6.6117188e+01
   7.0916016e+01   4.8699219e+01   6.6117188e+01
   7.0738281e+01   4.8521484e+01   6.6117188e+01
   7.0560547e+01   4.8699219e+01   6.6117188e+01
   7.0382812e+01   4.9410156e+01   6.5939453e+01
   7.0382812e+01   4.9587891e+01   6.5761719e+01
   7.0382812e+01   4.9410156e+01   6.5583984e+01
   7.0382812e+01   4.9232422e+01   6.5761719e+01
   7.0027344e+01   4.9765625e+01   6.5583984e+01
   7.0205078e+01   4.9765625e+01   6.5761719e+01
   7.0027344e+01   4.9765625e+01   6.5939453e+01
   6.9849609e+01   4.9765625e+01   6.5761719e+01
   7.0027344e+01   4.9587891e+01   6.6117188e+01
   7.0205078e+01   4.9410156e+01   6.6117188e+01
   7.0027344e+01   4.9232422e+01   6.6117188e+01
   6.9849609e+01   4.9410156e+01   6.6117188e+01
   7.1093750e+01   4.9410156e+01   6.5939453e+01
   7.1093750e+01   4.9587891e+01   6.5761719e+01
   7.1093750e+01   4.9410156e+01   6.5583984e+01
   7.1093750e+01   4.9232422e+01   6.5761719e+01
   7.0738281e+01   4.9765625e+01   6.5583984e+01
   7.0916016e+01   4.9765625e+01   6.5761719e+01
   7.0738281e+01   4.9765625e+01   6.5939453e+01
   7.0560547e+01   4.9765625e+01   6.5761719e+01
   7.0738281e+01   4.9587891e+01   6.6117188e+01
   7.0916016e+01   4.9410156e+01   6.6117188e+01
   7.0738281e+01   4.9232422e+01   6.6117188e+01
   7.0560547e+01   4.9410156e+01   6.6117188e+01
   7.0382812e+01   4.8699219e+01   6.6650391e+01
   7.0382812e+01   4.8876953e+01   6.6472656e+01
   7.0382812e+01   4.8699219e+01   6.6294922e+01
   7.0382812e+01   4.8521484e+01   6.6472656e+01
   7.0027344e+01   4.9054688e+01   6.6294922e+01
   7.0205078e+01   4.9054688e+01   6.6472656e+01
   7.0027344e+01   4.9054688e+01   6.6650391e+01
   6.9849609e+01   4.9054688e+01   6.6472656e+01
   7.0027344e+01   4.8876953e+01   6.6828125e+01
   7.0205078e+01   4.8699219e+01   6.6828125e+01
   7.0027344e+01   4.8521484e+01   6.6828125e+01
   6.9849609e+01   4.8699219e+01   6.6828125e+01
   7.1093750e+01   4.8699219e+01   6.6650391e+01
   7.1093750e+01   4.8876953e+01   6.6472656e+01
   7.1093750e+01   4.8699219e+01   6.6294922e+01
   7.1093750e+01   4.8521484e+01   6.6472656e+01
   7.0738281e+01   4.9054688e+01   6.6294922e+01
   7.0916016e+01   4.9054688e+01   6.6472656e+01
   7.0738281e+01   4.9054688e+01   6.6650391e+01
   7.0560547e+01   4.9054688e+01   6.6472656e+01
   7.0738281e+01   4.8876953e+01   6.6828125e+01
   7.0916016e+01   4.8699219e+01   6.6828125e+01
   7.0738281e+01   4.8521484e+01   6.6828125e+01
   7.0560547e+01   4.8699219e+01   6.6828125e+01
   7.0382812e+01   4.9410156e+01   6.6650391e+01
   7.0382812e+01   4.9587891e+01   6.6472656e+01
   7.0382812e+01   4.9410156e+01   6.6294922e+01
   7.0382812e+01   4.9232422e+01   6.6472656e+01
   7.0027344e+01   4.9765625e+01   6.6294922e+01
   7.0205078e+01   4.9765625e+01   6.6472656e+01
   7.0027344e+01   4.9765625e+01   6.6650391e+01
   6.9849609e+01   4.9765625e+01   6.6472656e+01
   7.0027344e+01   4.9587891e+01   6.6828125e+01
   7.0205078e+01   4.9410156e+01   6.6828125e+01
   7.0027344e+01   4.9232422e+01   6.6828125e+01
   6.9849609e+01   4.9410156e+01   6.6828125e+01
   7.1093750e+01   4.9410156e+01   6.6650391e+01
   7.1093750e+01   4.9587891e+01   6.6472656e+01
   7.1093750e+01   4.9410156e+01   6.6294922e+01
   7.1093750e+01   4.9232422e+01   6.6472656e+01
   7.0738281e+01   4.9765625e+01   6.6294922e+01
   7.0916016e+01   4.9765625e+01   6.6472656e+01
   7.0738281e+01   4.9765625e+01   6.6650391e+01
   7.0560547e+01   4.9765625e+01   6.6472656e+01
   7.0738281e+01   4.9587891e+01   6.6828125e+01
   7.0916016e+01   4.9410156e+01   6.6828125e+01
   7.0738281e+01   4.9232422e+01   6.6828125e+01
   7.0560547e+01   4.9410156e+01   6.6828125e+01
   6.9671875e+01   5.0121094e+01   6.5939453e+01
   6.9671875e+01   5.0298828e+01   6.5761719e+01
   6.9671875e+01   5.0121094e+01   6.5583984e+01
   6.9671875e+01   4.9943359e+01   6.5761719e+01
   6.9316406e+01   5.0298828e+01   6.6117188e+01
   6.9494141e+01   5.0121094e+01   6.6117188e+01
   6.9316406e+01   4.9943359e+01   6.6117188e+01
   6.9138672e+01   5.0121094e+01   6.6117188e+01
   6.9671875e+01   5.0832031e+01   6.5939453e+01
   6.9671875e+01   5.0654297e+01   6.5761719e+01
   6.9494141e+01   5.0832031e+01   6.6117188e+01
   6.9316406e+01   5.0654297e+01   6.6117188e+01
   6.8960938e+01   5.0121094e+01   6.6650391e+01
   6.8960938e+01   5.0298828e+01   6.6472656e+01
   6.8960938e+01   5.0121094e+01   6.6294922e+01
   6.8960938e+01   4.9943359e+01   6.6472656e+01
   6.8605469e+01   5.0298828e+01   6.6828125e+01
   6.8783203e+01   5.0121094e+01   6.6828125e+01
   6.8605469e+01   4.9943359e+01   6.6828125e+01
   6.8427734e+01   5.0121094e+01   6.6828125e+01
   6.9671875e+01   5.0121094e+01   6.6650391e+01
   6.9671875e+01   5.0298828e+01   6.6472656e+01
   6.9671875e+01   5.0121094e+01   6.6294922e+01
   6.9671875e+01   4.9943359e+01   6.6472656e+01
   6.9316406e+01   5.0476562e+01   6.6294922e+01
   6.9494141e+01   5.0476562e+01   6.6472656e+01
   6.9316406e+01   5.0476562e+01   6.6650391e+01
   6.9138672e+01   5.0476562e+01   6.6472656e+01
   6.9316406e+01   5.0298828e+01   6.6828125e+01
   6.9494141e+01   5.0121094e+01   6.6828125e+01
   6.9316406e+01   4.9943359e+01   6.6828125e+01
   6.9138672e+01   5.0121094e+01   6.6828125e+01
   6.9671875e+01   5.0832031e+01   6.6650391e+01
   6.9671875e+01   5.1009766e+01   6.6472656e+01
   6.9671875e+01   5.0832031e+01   6.6294922e+01
   6.9671875e+01   5.0654297e+01   6.6472656e+01
   6.9494141e+01   5.1187500e+01   6.6472656e+01
   6.9316406e+01   5.1187500e+01   6.6650391e+01
   6.9316406e+01   5.1009766e+01   6.6828125e+01
   6.9494141e+01   5.0832031e+01   6.6828125e+01
   6.9316406e+01   5.0654297e+01   6.6828125e+01
   6.9138672e+01   5.0832031e+01   6.6828125e+01
   7.0382812e+01   5.0121094e+01   6.5939453e+01
   7.0382812e+01   5.0298828e+01   6.5761719e+01
   7.0382812e+01   5.0121094e+01   6.5583984e+01
   7.0382812e+01   4.9943359e+01   6.5761719e+01
   7.0027344e+01   5.0476562e+01   6.5583984e+01
   7.0205078e+01   5.0476562e+01   6.5761719e+01
   7.0027344e+01   5.0476562e+01   6.5939453e+01
   6.9849609e+01   5.0476562e+01   6.5761719e+01
   7.0027344e+01   5.0298828e+01   6.6117188e+01
   7.0205078e+01   5.0121094e+01   6.6117188e+01
   7.0027344e+01   4.9943359e+01   6.6117188e+01
   6.9849609e+01   5.0121094e+01   6.6117188e+01
   7.1093750e+01   5.0121094e+01   6.5939453e+01
   7.1093750e+01   5.0298828e+01   6.5761719e+01
   7.1093750e+01   5.0121094e+01   6.5583984e+01
   7.1093750e+01   4.9943359e+01   6.5761719e+01
   7.0738281e+01   5.0476562e+01   6.5583984e+01
   7.0916016e+01   5.0476562e+01   6.5761719e+01
   7.0738281e+01   5.0476562e+01   6.5939453e+01
   7.0560547e+01   5.0476562e+01   6.5761719e+01
   7.0738281e+01   5.0298828e+01   6.6117188e+01
   7.0916016e+01   5.0121094e+01   6.6117188e+01
   7.0738281e+01   4.9943359e+01   6.6117188e+01
   7.0560547e+01   5.0121094e+01   6.6117188e+01
   7.0382812e+01   5.0832031e+01   6.5939453e+01
   7.0382812e+01   5.1009766e+01   6.5761719e+01
   7.0382812e+01   5.0832031e+01   6.5583984e+01
   7.0382812e+01   5.0654297e+01   6.5761719e+01
   7.0205078e+01   5.1187500e+01   6.5761719e+01
   7.0027344e+01   5.1187500e+01   6.5939453e+01
   7.0027344e+01   5.1009766e+01   6.6117188e+01
   7.0205078e+01   5.0832031e+01   6.6117188e+01
   7.0027344e+01   5.0654297e+01   6.6117188e+01
   6.9849609e+01   5.0832031e+01   6.6117188e+01
   7.1093750e+01   5.0832031e+01   6.5939453e+01
   7.1093750e+01   5.1009766e+01   6.5761719e+01
   7.1093750e+01   5.0832031e+01   6.5583984e+01
   7.1093750e+01   5.0654297e+01   6.5761719e+01
   7.0738281e+01   5.1187500e+01   6.5583984e+01
   7.0916016e+01   5.1187500e+01   6.5761719e+01
   7.0738281e+01   5.1187500e+01   6.5939453e+01
   7.0560547e+01   5.1187500e+01   6.5761719e+01
   7.0738281e+01   5.1009766e+01   6.6117188e+01
   7.0916016e+01   5.0832031e+01   6.6117188e+01
   7.0738281e+01   5.0654297e+01   6.6117188e+01
   7.0560547e+01   5.0832031e+01   6.6117188e+01
   7.0382812e+01   5.0121094e+01   6.6650391e+01
   7.0382812e+01   5.0298828e+01   6.6472656e+01
   7.0382812e+01   5.0121094e+01   6.6294922e+01
   7.0382812e+01   4.9943359e+01   6.6472656e+01
   7.0027344e+01   5.0476562e+01   6.6294922e+01
   7.0205078e+01   5.0476562e+01   6.6472656e+01
   7.0027344e+01   5.0476562e+01   6.6650391e+01
   6.9849609e+01   5.0476562e+01   6.6472656e+01
   7.0027344e+01   5.0298828e+01   6.6828125e+01
   7.0205078e+01   5.0121094e+01   6.6828125e+01
   7.0027344e+01   4.9943359e+01   6.6828125e+01
   6.9849609e+01   5.0121094e+01   6.6828125e+01
   7.1093750e+01   5.0121094e+01   6.6650391e+01
   7.1093750e+01   5.0298828e+01   6.6472656e+01
   7.1093750e+01   5.0121094e+01   6.6294922e+01
   7.1093750e+01   4.9943359e+01   6.6472656e+01
   7.0738281e+01   5.0476562e+01   6.6294922e+01
   7.0916016e+01   5.0476562e+01   6.6472656e+01
   7.0738281e+01   5.0476562e+01   6.6650391e+01
   7.0560547e+01   5.0476562e+01   6.6472656e+01
   7.0738281e+01   5.0298828e+01   6.6828125e+01
   7.0916016e+01   5.0121094e+01   6.6828125e+01
   7.0738281e+01   4.9943359e+01   6.6828125e+01
   7.0560547e+01   5.0121094e+01   6.6828125e+01
   7.0382812e+01   5.0832031e+01   6.6650391e+01
   7.0382812e+01   5.1009766e+01   6.6472656e+01
   7.0382812e+01   5.0832031e+01   6.6294922e+01
   7.0382812e+01   5.0654297e+01   6.6472656e+01
   7.0027344e+01   5.1187500e+01   6.6294922e+01
   7.0205078e+01   5.1187500e+01   6.6472656e+01
   7.0027344e+01   5.1187500e+01   6.6650391e+01
   6.9849609e+01   5.1187500e+01   6.6472656e+01
   7.0027344e+01   5.1009766e+01   6.6828125e+01
   7.0205078e+01   5.0832031e+01   6.6828125e+01
   7.0027344e+01   5.0654297e+01   6.6828125e+01
   6.9849609e+01   5.0832031e+01   6.6828125e+01
   7.1093750e+01   5.0832031e+01   6.6650391e+01
   7.1093750e+01   5.1009766e+01   6.6472656e+01
   7.1093750e+01   5.0832031e+01   6.6294922e+01
   7.1093750e+01   5.0654297e+01   6.6472656e+01
   7.0738281e+01   5.1187500e+01   6.6294922e+01
   7.0916016e+01   5.1187500e+01   6.6472656e+01
   7.0738281e+01   5.1187500e+01   6.6650391e+01
   7.0560547e+01   5.1187500e+01   6.6472656e+01
   7.0738281e+01   5.1009766e+01   6.6828125e+01
   7.0916016e+01   5.0832031e+01   6.6828125e+01
   7.0738281e+01   5.0654297e+01   6.6828125e+01
   7.0560547e+01   5.0832031e+01   6.6828125e+01
   6.8960938e+01   4.8699219e+01   6.7361328e+01
   6.8960938e+01   4.8876953e+01   6.7183594e+01
   6.8960938e+01   4.8699219e+01   6.7005859e+01
   6.8960938e+01   4.8521484e+01   6.7183594e+01
   6.8605469e+01   4.9054688e+01   6.7005859e+01
   6.8783203e+01   4.9054688e+01   6.7183594e+01
   6.8605469e+01   4.9054688e+01   6.7361328e+01
   6.8427734e+01   4.9054688e+01   6.7183594e+01
   6.8605469e+01   4.8876953e+01   6.7539062e+01
   6.8783203e+01   4.8699219e+01   6.7539062e+01
   6.8605469e+01   4.8521484e+01   6.7539062e+01
   6.8427734e+01   4.8699219e+01   6.7539062e+01
   6.9671875e+01   4.8699219e+01   6.7361328e+01
   6.9671875e+01   4.8876953e+01   6.7183594e+01
   6.9671875e+01   4.8699219e+01   6.7005859e+01
   6.9671875e+01   4.8521484e+01   6.7183594e+01
   6.9316406e+01   4.9054688e+01   6.7005859e+01
   6.9494141e+01   4.9054688e+01   6.7183594e+01
   6.9316406e+01   4.9054688e+01   6.7361328e+01
   6.9138672e+01   4.9054688e+01   6.7183594e+01
   6.9316406e+01   4.8876953e+01   6.7539062e+01
   6.9494141e+01   4.8699219e+01   6.7539062e+01
   6.9316406e+01   4.8521484e+01   6.7539062e+01
   6.9138672e+01   4.8699219e+01   6.7539062e+01
   6.8960938e+01   4.9410156e+01   6.7361328e+01
   6.8960938e+01   4.9587891e+01   6.7183594e+01
   6.8960938e+01   4.9410156e+01   6.7005859e+01
   6.8960938e+01   4.9232422e+01   6.7183594e+01
   6.8605469e+01   4.9765625e+01   6.7005859e+01
   6.8783203e+01   4.9765625e+01   6.7183594e+01
   6.8605469e+01   4.9765625e+01   6.7361328e+01
   6.8427734e+01   4.9765625e+01   6.7183594e+01
   6.8605469e+01   4.9587891e+01   6.7539062e+01
   6.8783203e+01   4.9410156e+01   6.7539062e+01
   6.8605469e+01   4.9232422e+01   6.7539062e+01
   6.8427734e+01   4.9410156e+01   6.7539062e+01
   6.9671875e+01   4.9410156e+01   6.7361328e+01
   6.9671875e+01   4.9587891e+01   6.7183594e+01
   6.9671875e+01   4.9410156e+01   6.7005859e+01
   6.9671875e+01   4.9232422e+01   6.7183594e+01
   6.9316406e+01   4.9765625e+01   6.7005859e+01
   6.9494141e+01   4.9765625e+01   6.7183594e+01
   6.9316406e+01   4.9765625e+01   6.7361328e+01
   6.9138672e+01   4.9765625e+01   6.7183594e+01
   6.9316406e+01   4.9587891e+01   6.7539062e+01
   6.9494141e+01   4.9410156e+01   6.7539062e+01
   6.9316406e+01   4.9232422e+01   6.7539062e+01
   6.9138672e+01   4.9410156e+01   6.7539062e+01
   6.8960938e+01   4.8699219e+01   6.8072266e+01
   6.8960938e+01   4.8876953e+01   6.7894531e+01
   6.8960938e+01   4.8699219e+01   6.7716797e+01
   6.8960938e+01   4.8521484e+01   6.7894531e+01
   6.8605469e+01   4.9054688e+01   6.7716797e+01
   6.8783203e+01   4.9054688e+01   6.7894531e+01
   6.8605469e+01   4.9054688e+01   6.8072266e+01
   6.8427734e+01   4.9054688e+01   6.7894531e+01
   6.8605469e+01   4.8876953e+01   6.8250000e+01
   6.8783203e+01   4.8699219e+01   6.8250000e+01
   6.8605469e+01   4.8521484e+01   6.8250000e+01
   6.8427734e+01   4.8699219e+01   6.8250000e+01
   6.9671875e+01   4.8699219e+01   6.8072266e+01
   6.9671875e+01   4.8876953e+01   6.7894531e+01
   6.9671875e+01   4.8699219e+01   6.7716797e+01
   6.9671875e+01   4.8521484e+01   6.7894531e+01
   6.9316406e+01   4.9054688e+01   6.7716797e+01
   6.9494141e+01   4.9054688e+01   6.7894531e+01
   6.9316406e+01   4.9054688e+01   6.8072266e+01
   6.9138672e+01   4.9054688e+01   6.7894531e+01
   6.9316406e+01   4.8876953e+01   6.8250000e+01
   6.9494141e+01   4.8699219e+01   6.8250000e+01
   6.9316406e+01   4.8521484e+01   6.8250000e+01
   6.9138672e+01   4.8699219e+01   6.8250000e+01
   6.8960938e+01   4.9410156e+01   6.8072266e+01
   6.8960938e+01   4.9587891e+01   6.7894531e+01
   6.8960938e+01   4.9410156e+01   6.7716797e+01
   6.8960938e+01   4.9232422e+01   6.7894531e+01
   6.8605469e+01   4.9765625e+01   6.7716797e+01
   6.8783203e+01   4.9765625e+01   6.7894531e+01
   6.8605469e+01   4.9765625e+01   6.8072266e+01
   6.8427734e+01   4.9765625e+01   6.7894531e+01
   6.8605469e+01   4.9587891e+01   6.8250000e+01
   6.8783203e+01   4.9410156e+01   6.8250000e+01
   6.8605469e+01   4.9232422e+01   6.8250000e+01
   6.8427734e+01   4.9410156e+01   6.8250000e+01
   6.9671875e+01   4.9410156e+01   6.8072266e+01
   6.9671875e+01   4.9587891e+01   6.7894531e+01
   6.9671875e+01   4.9410156e+01   6.7716797e+01
   6.9671875e+01   4.9232422e+01   6.7894531e+01
   6.9316406e+01   4.9765625e+01   6.7716797e+01
   6.9494141e+01   4.9765625e+01   6.7894531e+01
   6.9316406e+01   4.9765625e+01   6.8072266e+01
   6.9138672e+01   4.9765625e+01   6.7894531e+01
   6.9316406e+01   4.9587891e+01   6.8250000e+01
   6.9494141e+01   4.9410156e+01   6.8250000e+01
   6.9316406e+01   4.9232422e+01   6.8250000e+01
   6.9138672e+01   4.9410156e+01   6.8250000e+01
   7.0382812e+01   4.8699219e+01   6.7361328e+01
   7.0382812e+01   4.8876953e+01   6.7183594e+01
   7.0382812e+01   4.8699219e+01   6.7005859e+01
   7.0382812e+01   4.8521484e+01   6.7183594e+01
   7.0027344e+01   4.9054688e+01   6.7005859e+01
   7.0205078e+01   4.9054688e+01   6.7183594e+01
   7.0027344e+01   4.9054688e+01   6.7361328e+01
   6.9849609e+01   4.9054688e+01   6.7183594e+01
   7.0027344e+01   4.8876953e+01   6.7539062e+01
   7.0205078e+01   4.8699219e+01   6.7539062e+01
   7.0027344e+01   4.8521484e+01   6.7539062e+01
   6.9849609e+01   4.8699219e+01   6.7539062e+01
   7.1105189e+01   4.8699729e+01   6.7373787e+01
   7.1105189e+01   4.8877463e+01   6.7196053e+01
   7.1105189e+01   4.8699729e+01   6.7018318e+01
   7.1105189e+01   4.8521994e+01   6.7196053e+01
   7.0738281e+01   4.9054688e+01   6.7005859e+01
   7.0916016e+01   4.9054688e+01   6.7183594e+01
   7.0738281e+01   4.9054688e+01   6.7361328e+01
   7.0560547e+01   4.9054688e+01   6.7183594e+01
   7.0738281e+01   4.8876953e+01   6.7539062e+01
   7.0916016e+01   4.8699219e+01   6.7539062e+01
   7.0738281e+01   4.8521484e+01   6.7539062e+01
   7.0560547e+01   4.8699219e+01   6.7539062e+01
   7.0382812e+01   4.9410156e+01   6.7361328e+01
   7.0382812e+01   4.9587891e+01   6.7183594e+01
   7.0382812e+01   4.9410156e+01   6.7005859e+01
   7.0382812e+01   4.9232422e+01   6.7183594e+01
   7.0027344e+01   4.9765625e+01   6.7005859e+01
   7.0205078e+01   4.9765625e+01   6.7183594e+01
   7.0027344e+01   4.9765625e+01   6.7361328e+01
   6.9849609e+01   4.9765625e+01   6.7183594e+01
   7.0027344e+01   4.9587891e+01   6.7539062e+01
   7.0205078e+01   4.9410156e+01   6.7539062e+01
   7.0027344e+01   4.9232422e+01   6.7539062e+01
   6.9849609e+01   4.9410156e+01   6.7539062e+01
   7.1093750e+01   4.9410156e+01   6.7361328e+01
   7.1093750e+01   4.9587891e+01   6.7183594e+01
   7.1093750e+01   4.9410156e+01   6.7005859e+01
   7.1093750e+01   4.9232422e+01   6.7183594e+01
   7.0738281e+01   4.9765625e+01   6.7005859e+01
   7.0916016e+01   4.9765625e+01   6.7183594e+01
   7.0738281e+01   4.9765625e+01   6.7361328e+01
   7.0560547e+01   4.9765625e+01   6.7183594e+01
   7.0738281e+01   4.9587891e+01   6.7539062e+01
   7.0916016e+01   4.9410156e+01   6.7539062e+01
   7.0738281e+01   4.9232422e+01   6.7539062e+01
   7.0560547e+01   4.9410156e+01   6.7539062e+01
   7.0370354e+01   4.8698710e+01   6.8060266e+01
   7.0382812e+01   4.8876953e+01   6.7894531e+01
   7.0382812e+01   4.8699219e+01   6.7716797e+01
   7.0370354e+01   4.8520976e+01   6.7882531e+01
   7.0027344e+01   4.9054688e+01   6.7716797e+01
   7.0205078e+01   4.9054688e+01   6.7894531e+01
   7.0027344e+01   4.9054688e+01   6.8072266e+01
   6.9849609e+01   4.9054688e+01   6.7894531e+01
   7.0027344e+01   4.8876953e+01   6.8250000e+01
   7.0192619e+01   4.8698710e+01   6.8238000e+01
   7.0014885e+01   4.8520976e+01   6.8238000e+01
   6.9849609e+01   4.8699219e+01   6.8250000e+01
   7.0827406e+01   4.8700634e+01   6.7938387e+01
   7.1072787e+01   4.8765451e+01   6.7650564e+01
   7.0893639e+01   4.8589132e+01   6.7826885e+01
   7.0738281e+01   4.9054688e+01   6.7716797e+01
   7.0560547e+01   4.9054688e+01   6.7894531e+01
   7.0561844e+01   4.8966194e+01   6.8206029e+01
   7.0782137e+01   4.8700634e+01   6.7982908e+01
   7.0658176e+01   4.8588623e+01   6.8037141e+01
   7.0481480e+01   4.8765316e+01   6.8215916e+01
   7.0382812e+01   4.9410156e+01   6.8072266e+01
   7.0382812e+01   4.9587891e+01   6.7894531e+01
   7.0382812e+01   4.9410156e+01   6.7716797e+01
   7.0382812e+01   4.9232422e+01   6.7894531e+01
   7.0027344e+01   4.9765625e+01   6.7716797e+01
   7.0205078e+01   4.9765625e+01   6.7894531e+01
   7.0027344e+01   4.9765625e+01   6.8072266e+01
   6.9849609e+01   4.9765625e+01   6.7894531e+01
   7.0027344e+01   4.9587891e+01   6.8250000e+01
   7.0205078e+01   4.9410156e+01   6.8250000e+01
   7.0027344e+01   4.9232422e+01   6.8250000e+01
   6.9849609e+01   4.9410156e+01   6.8250000e+01
   7.0828820e+01   4.9410156e+01   6.7939801e+01
   7.0895053e+01   4.9521658e+01   6.7873568e+01
   7.1050152e+01   4.9499023e+01   6.7673199e+01
   7.1027518e+01   4.9166189e+01   6.7695834e+01
   7.0738281e+01   4.9765625e+01   6.7716797e+01
   7.0560547e+01   4.9765625e+01   6.7894531e+01
   7.0562219e+01   4.9676758e+01   6.8206402e+01
   7.0783551e+01   4.9410156e+01   6.7985070e+01
   7.0562219e+01   4.9143555e+01   6.8206402e+01
   7.0494314e+01   4.9343924e+01   6.8229037e+01
   6.8960938e+01   5.0121094e+01   6.7361328e+01
   6.8960938e+01   5.0298828e+01   6.7183594e+01
   6.8960938e+01   5.0121094e+01   6.7005859e+01
   6.8960938e+01   4.9943359e+01   6.7183594e+01
   6.8605469e+01   5.0476562e+01   6.7005859e+01
   6.8783203e+01   5.0476562e+01   6.7183594e+01
   6.8605469e+01   5.0476562e+01   6.7361328e+01
   6.8427734e+01   5.0476562e+01   6.7183594e+01
   6.8605469e+01   5.0298828e+01   6.7539062e+01
   6.8783203e+01   5.0121094e+01   6.7539062e+01
   6.8605469e+01   4.9943359e+01   6.7539062e+01
   6.8427734e+01   5.0121094e+01   6.7539062e+01
   6.9671875e+01   5.0121094e+01   6.7361328e+01
   6.9671875e+01   5.0298828e+01   6.7183594e+01
   6.9671875e+01   5.0121094e+01   6.7005859e+01
   6.9671875e+01   4.9943359e+01   6.7183594e+01
   6.9316406e+01   5.0476562e+01   6.7005859e+01
   6.9494141e+01   5.0476562e+01   6.7183594e+01
   6.9316406e+01   5.0476562e+01   6.7361328e+01
   6.9138672e+01   5.0476562e+01   6.7183594e+01
   6.9316406e+01   5.0298828e+01   6.7539062e+01
   6.9494141e+01   5.0121094e+01   6.7539062e+01
   6.9316406e+01   4.9943359e+01   6.7539062e+01
   6.9138672e+01   5.0121094e+01   6.7539062e+01
   6.8960938e+01   5.0832031e+01   6.7361328e+01
   6.8960938e+01   5.1009766e+01   6.7183594e+01
   6.8960938e+01   5.0832031e+01   6.7005859e+01
   6.8960938e+01   5.0654297e+01   6.7183594e+01
   6.8783203e+01   5.1187500e+01   6.7183594e+01
   6.8605469e+01   5.1187500e+01   6.7361328e+01
   6.8605469e+01   5.1009766e+01   6.7539062e+01
   6.8783203e+01   5.0832031e+01   6.7539062e+01
   6.8605469e+01   5.0654297e+01   6.7539062e+01
   6.8427734e+01   5.0832031e+01   6.7539062e+01
   6.9671875e+01   5.0832031e+01   6.7361328e+01
   6.9671875e+01   5.1009766e+01   6.7183594e+01
   6.9671875e+01   5.0832031e+01   6.7005859e+01
   6.9671875e+01   5.0654297e+01   6.7183594e+01
   6.9316406e+01   5.1187500e+01   6.7005859e+01
   6.9494141e+01   5.1187500e+01   6.7183594e+01
   6.9316406e+01   5.1187500e+01   6.7361328e+01
   6.9138672e+01   5.1187500e+01   6.7183594e+01
   6.9316406e+01   5.1009766e+01   6.7539062e+01
   6.9494141e+01   5.0832031e+01   6.7539062e+01
   6.9316406e+01   5.0654297e+01   6.7539062e+01
   6.9138672e+01   5.0832031e+01   6.7539062e+01
   6.8960938e+01   5.0121094e+01   6.8072266e+01
   6.8960938e+01   5.0298828e+01   6.7894531e+01
   6.8960938e+01   5.0121094e+01   6.7716797e+01
   6.8960938e+01   4.9943359e+01   6.7894531e+01
   6.8605469e+01   5.0476562e+01   6.7716797e+01
   6.8783203e+01   5.0476562e+01   6.7894531e+01
   6.8605469e+01   5.0476562e+01   6.8072266e+01
   6.8427734e+01   5.0476562e+01   6.7894531e+01
   6.8605469e+01   5.0298828e+01   6.8250000e+01
   6.8783203e+01   5.0121094e+01   6.8250000e+01
   6.8605469e+01   4.9943359e+01   6.8250000e+01
   6.8427734e+01   5.0121094e+01   6.8250000e+01
   6.9671875e+01   5.0121094e+01   6.8072266e+01
   6.9671875e+01   5.0298828e+01   6.7894531e+01
   6.9671875e+01   5.0121094e+01   6.7716797e+01
   6.9671875e+01   4.9943359e+01   6.7894531e+01
   6.9316406e+01   5.0476562e+01   6.7716797e+01
   6.9494141e+01   5.0476562e+01   6.7894531e+01
   6.9316406e+01   5.0476562e+01   6.8072266e+01
   6.9138672e+01   5.0476562e+01   6.7894531e+01
   6.9316406e+01   5.0298828e+01   6.8250000e+01
   6.9494141e+01   5.0121094e+01   6.8250000e+01
   6.9316406e+01   4.9943359e+01   6.8250000e+01
   6.9138672e+01   5.0121094e+01   6.8250000e+01
   6.8960938e+01   5.0832031e+01   6.8072266e+01
   6.8960938e+01   5.1009766e+01   6.7894531e+01
   6.8960938e+01   5.0832031e+01   6.7716797e+01
   6.8960938e+01   5.0654297e+01   6.7894531e+01
   6.8605469e+01   5.1187500e+01   6.7716797e+01
   6.8783203e+01   5.1187500e+01   6.7894531e+01
   6.8605469e+01   5.1187500e+01   6.8072266e+01
   6.8427734e+01   5.1187500e+01   6.7894531e+01
   6.8605469e+01   5.1009766e+01   6.8250000e+01
   6.8783203e+01   5.0832031e+01   6.8250000e+01
   6.8605469e+01   5.0654297e+01   6.8250000e+01
   6.8427734e+01   5.0832031e+01   6.8250000e+01
   6.9671875e+01   5.0832031e+01   6.8072266e+01
   6.9671875e+01   5.1009766e+01   6.7894531e+01
   6.9671875e+01   5.0832031e+01   6.7716797e+01
   6.9671875e+01   5.0654297e+01   6.7894531e+01
   6.9316406e+01   5.1187500e+01   6.7716797e+01
   6.9494141e+01   5.1187500e+01   6.7894531e+01
   6.9316406e+01   5.1187500e+01   6.8072266e+01
   6.9138672e+01   5.1187500e+01   6.7894531e+01
   6.9316406e+01   5.1009766e+01   6.8250000e+01
   6.9494141e+01   5.0832031e+01   6.8250000e+01
   6.9316406e+01   5.0654297e+01   6.8250000e+01
   6.9138672e+01   5.0832031e+01   6.8250000e+01
   7.0382812e+01   5.0121094e+01   6.7361328e+01
   7.0382812e+01   5.0298828e+01   6.7183594e+01
   7.0382812e+01   5.0121094e+01   6.7005859e+01
   7.0382812e+01   4.9943359e+01   6.7183594e+01
   7.0027344e+01   5.0476562e+01   6.7005859e+01
   7.0205078e+01   5.0476562e+01   6.7183594e+01
   7.0027344e+01   5.0476562e+01   6.7361328e+01
   6.9849609e+01   5.0476562e+01   6.7183594e+01
   7.0027344e+01   5.0298828e+01   6.7539062e+01
   7.0205078e+01   5.0121094e+01   6.7539062e+01
   7.0027344e+01   4.9943359e+01   6.7539062e+01
   6.9849609e+01   5.0121094e+01   6.7539062e+01
   7.1093750e+01   5.0121094e+01   6.7361328e+01
   7.1093750e+01   5.0298828e+01   6.7183594e+01
   7.1093750e+01   5.0121094e+01   6.7005859e+01
   7.1093750e+01   4.9943359e+01   6.7183594e+01
   7.0738281e+01   5.0476562e+01   6.7005859e+01
   7.0916016e+01   5.0476562e+01   6.7183594e+01
   7.0738281e+01   5.0476562e+01   6.7361328e+01
   7.0560547e+01   5.0476562e+01   6.7183594e+01
   7.0738281e+01   5.0298828e+01   6.7539062e+01
   7.0916016e+01   5.0121094e+01   6.7539062e+01
   7.0738281e+01   4.9943359e+01   6.7539062e+01
   7.0560547e+01   5.0121094e+01   6.7539062e+01
   7.0382812e+01   5.0832031e+01   6.7361328e+01
   7.0382812e+01   5.1009766e+01   6.7183594e+01
   7.0382812e+01   5.0832031e+01   6.7005859e+01
   7.0382812e+01   5.0654297e+01   6.7183594e+01
   7.0027344e+01   5.1187500e+01   6.7005859e+01
   7.0205078e+01   5.1187500e+01   6.7183594e+01
   7.0027344e+01   5.1187500e+01   6.7361328e+01
   6.9849609e+01   5.1187500e+01   6.7183594e+01
   7.0027344e+01   5.1009766e+01   6.7539062e+01
   7.0205078e+01   5.0832031e+01   6.7539062e+01
   7.0027344e+01   5.0654297e+01   6.7539062e+01
   6.9849609e+01   5.0832031e+01   6.7539062e+01
   7.1093750e+01   5.0832031e+01   6.7361328e+01
   7.1093750e+01   5.1009766e+01   6.7183594e+01
   7.1093750e+01   5.0832031e+01   6.7005859e+01
   7.1093750e+01   5.0654297e+01   6.7183594e+01
   7.0738281e+01   5.1187500e+01   6.7005859e+01
   7.0916016e+01   5.1187500e+01   6.7183594e+01
   7.0738281e+01   5.1187500e+01   6.7361328e+01
   7.0560547e+01   5.1187500e+01   6.7183594e+01
   7.0738281e+01   5.1009766e+01   6.7539062e+01
   7.0916016e+01   5.0832031e+01   6.7539062e+01
   7.0738281e+01   5.0654297e+01   6.7539062e+01
   7.0560547e+01   5.0832031e+01   6.7539062e+01
   7.0382812e+01   5.0121094e+01   6.8072266e+01
   7.0382812e+01   5.0298828e+01   6.7894531e+01
   7.0382812e+01   5.0121094e+01   6.7716797e+01
   7.0382812e+01   4.9943359e+01   6.7894531e+01
   7.0027344e+01   5.0476562e+01   6.7716797e+01
   7.0205078e+01   5.0476562e+01   6.7894531e+01
   7.0027344e+01   5.0476562e+01   6.8072266e+01
   6.9849609e+01   5.0476562e+01   6.7894531e+01
   7.0027344e+01   5.0298828e+01   6.8250000e+01
   7.0205078e+01   5.0121094e+01   6.8250000e+01
   7.0027344e+01   4.9943359e+01   6.8250000e+01
   6.9849609e+01   5.0121094e+01   6.8250000e+01
   7.0828820e+01   5.0121094e+01   6.7939801e+01
   7.1050152e+01   5.0387695e+01   6.7718469e+01
   7.1095422e+01   5.0209961e+01   6.7673199e+01
   7.1027518e+01   4.9877127e+01   6.7695834e+01
   7.0738281e+01   5.0476562e+01   6.7716797e+01
   7.0560547e+01   5.0476562e+01   6.7894531e+01
   7.0562219e+01   5.0387695e+01   6.8206402e+01
   7.0783551e+01   5.0121094e+01   6.7985070e+01
   7.0717318e+01   5.0009592e+01   6.8051303e+01
   7.0494314e+01   5.0054861e+01   6.8183768e+01
   7.0382812e+01   5.0832031e+01   6.8072266e+01
   7.0382812e+01   5.1009766e+01   6.7894531e+01
   7.0382812e+01   5.0832031e+01   6.7716797e+01
   7.0382812e+01   5.0654297e+01   6.7894531e+01
   7.0027344e+01   5.1187500e+01   6.7716797e+01
   7.0205078e+01   5.1187500e+01   6.7894531e+01
   7.0027344e+01   5.1187500e+01   6.8072266e+01
   6.9849609e+01   5.1187500e+01   6.7894531e+01
   7.0027344e+01   5.1009766e+01   6.8250000e+01
   7.0205078e+01   5.0832031e+01   6.8250000e+01
   7.0027344e+01   5.0654297e+01   6.8250000e+01
   6.9849609e+01   5.0832031e+01   6.8250000e+01
   7.0828820e+01   5.0832031e+01   6.7939801e+01
   7.0895053e+01   5.0943533e+01   6.7873568e+01
   7.1050152e+01   5.0920898e+01   6.7673199e+01
   7.1027518e+01   5.0588064e+01   6.7695834e+01
   7.0738281e+01   5.1187500e+01   6.7716797e+01
   7.0560547e+01   5.1187500e+01   6.7894531e+01
   7.0562219e+01   5.1098633e+01   6.8206402e+01
   7.0783551e+01   5.0832031e+01   6.7985070e+01
   7.0562219e+01   5.0565430e+01   6.8206402e+01
   7.0494314e+01   5.0765799e+01   6.8229037e+01
   7.1804688e+01   4.8699219e+01   6.5939453e+01
   7.1804688e+01   4.8876953e+01   6.5761719e+01
   7.1804688e+01   4.8699219e+01   6.5583984e+01
   7.1804688e+01   4.8521484e+01   6.5761719e+01
   7.1449219e+01   4.9054688e+01   6.5583984e+01
   7.1626953e+01   4.9054688e+01   6.5761719e+01
   7.1449219e+01   4.9054688e+01   6.5939453e+01
   7.1271484e+01   4.9054688e+01   6.5761719e+01
   7.1449219e+01   4.8876953e+01   6.6117188e+01
   7.1626953e+01   4.8699219e+01   6.6117188e+01
   7.1449219e+01   4.8521484e+01   6.6117188e+01
   7.1271484e+01   4.8699219e+01   6.6117188e+01
   7.2425086e+01   4.8699219e+01   6.5894184e+01
   7.2513953e+01   4.8788086e+01   6.5805316e+01
   7.2558420e+01   4.8787282e+01   6.5626779e+01
   7.2492188e+01   4.8498046e+01   6.5691404e+01
   7.2160156e+01   4.9054688e+01   6.5583984e+01
   7.1982422e+01   4.9054688e+01   6.5761719e+01
   7.2093375e+01   4.8899214e+01   6.6227393e+01
   7.2292621e+01   4.8699219e+01   6.6026648e+01
   7.2158484e+01   4.8432617e+01   6.6160785e+01
   7.1959787e+01   4.8676584e+01   6.6227018e+01
   7.1804688e+01   4.9410156e+01   6.5939453e+01
   7.1804688e+01   4.9587891e+01   6.5761719e+01
   7.1804688e+01   4.9410156e+01   6.5583984e+01
   7.1804688e+01   4.9232422e+01   6.5761719e+01
   7.1449219e+01   4.9765625e+01   6.5583984e+01
   7.1626953e+01   4.9765625e+01   6.5761719e+01
   7.1449219e+01   4.9765625e+01   6.5939453e+01
   7.1271484e+01   4.9765625e+01   6.5761719e+01
   7.1449219e+01   4.9587891e+01   6.6117188e+01
   7.1626953e+01   4.9410156e+01   6.6117188e+01
   7.1449219e+01   4.9232422e+01   6.6117188e+01
   7.1271484e+01   4.9410156e+01   6.6117188e+01
