   6.3371438e+01   4.4816629e+01   5.8474547e+01
   6.4382548e+01   4.4816629e+01   5.8474547e+01
   6.6404770e+01   4.3805518e+01   5.9185485e+01
   6.7415881e+01   4.3805518e+01   5.9185485e+01
   6.3371438e+01   4.4816629e+01   5.9185485e+01
   6.4382548e+01   4.4816629e+01   5.9185485e+01
   6.5393659e+01   4.4816629e+01   5.9185485e+01
   6.6404770e+01   4.4816629e+01   5.9185485e+01
   6.4382548e+01   4.5827740e+01   5.9185485e+01
   6.5393659e+01   4.5827740e+01   5.9185485e+01
   6.4382548e+01   4.6838851e+01   5.9185485e+01
   6.5393659e+01   4.6838851e+01   5.9185485e+01
   6.4382548e+01   4.7849962e+01   5.9185485e+01
   7.0449214e+01   4.2794407e+01   5.9896423e+01
   6.5393659e+01   4.3805518e+01   5.9896423e+01
   6.6404770e+01   4.3805518e+01   5.9896423e+01
   6.7415881e+01   4.3805518e+01   5.9896423e+01
   6.8426992e+01   4.3805518e+01   5.9896423e+01
   6.9438103e+01   4.3805518e+01   5.9896423e+01
   6.3371438e+01   4.4816629e+01   5.9896423e+01
   6.4382548e+01   4.4816629e+01   5.9896423e+01
   6.5393659e+01   4.4816629e+01   5.9896423e+01
   6.6404770e+01   4.4816629e+01   5.9896423e+01
   6.7415881e+01   4.4816629e+01   5.9896423e+01
   6.8426992e+01   4.4816629e+01   5.9896423e+01
   6.9438103e+01   4.4816629e+01   5.9896423e+01
   6.3371438e+01   4.5827740e+01   5.9896423e+01
   6.4382548e+01   4.5827740e+01   5.9896423e+01
   6.5393659e+01   4.5827740e+01   5.9896423e+01
   6.6404770e+01   4.5827740e+01   5.9896423e+01
   6.7415881e+01   4.5827740e+01   5.9896423e+01
   6.8426992e+01   4.5827740e+01   5.9896423e+01
   6.4382548e+01   4.6838851e+01   5.9896423e+01
   6.5393659e+01   4.6838851e+01   5.9896423e+01
   6.6404770e+01   4.6838851e+01   5.9896423e+01
   6.7415881e+01   4.6838851e+01   5.9896423e+01
   6.4382548e+01   4.7849962e+01   5.9896423e+01
   6.5393659e+01   4.7849962e+01   5.9896423e+01
   6.6404770e+01   4.7849962e+01   5.9896423e+01
   6.4382548e+01   4.8861073e+01   5.9896423e+01
   6.5393659e+01   4.8861073e+01   5.9896423e+01
   6.9438103e+01   4.2794407e+01   6.0607361e+01
   7.0449214e+01   4.2794407e+01   6.0607361e+01
   7.1460325e+01   4.2794407e+01   6.0607361e+01
   7.2471436e+01   4.2794407e+01   6.0607361e+01
   6.4382548e+01   4.3805518e+01   6.0607361e+01
   6.5393659e+01   4.3805518e+01   6.0607361e+01
   6.6404770e+01   4.3805518e+01   6.0607361e+01
   6.7415881e+01   4.3805518e+01   6.0607361e+01
   6.8426992e+01   4.3805518e+01   6.0607361e+01
   6.9438103e+01   4.3805518e+01   6.0607361e+01
   7.0449214e+01   4.3805518e+01   6.0607361e+01
   7.1460325e+01   4.3805518e+01   6.0607361e+01
   7.2471436e+01   4.3805518e+01   6.0607361e+01
   6.3371438e+01   4.4816629e+01   6.0607361e+01
   6.4382548e+01   4.4816629e+01   6.0607361e+01
   6.5393659e+01   4.4816629e+01   6.0607361e+01
   6.6404770e+01   4.4816629e+01   6.0607361e+01
   6.7415881e+01   4.4816629e+01   6.0607361e+01
   6.8426992e+01   4.4816629e+01   6.0607361e+01
   6.9438103e+01   4.4816629e+01   6.0607361e+01
   7.0449214e+01   4.4816629e+01   6.0607361e+01
   7.1460325e+01   4.4816629e+01   6.0607361e+01
   6.3371438e+01   4.5827740e+01   6.0607361e+01
   6.4382548e+01   4.5827740e+01   6.0607361e+01
   6.5393659e+01   4.5827740e+01   6.0607361e+01
   6.6404770e+01   4.5827740e+01   6.0607361e+01
   6.7415881e+01   4.5827740e+01   6.0607361e+01
   6.8426992e+01   4.5827740e+01   6.0607361e+01
   6.9438103e+01   4.5827740e+01   6.0607361e+01
   7.0449214e+01   4.5827740e+01   6.0607361e+01
   6.4382548e+01   4.6838851e+01   6.0607361e+01
   6.5393659e+01   4.6838851e+01   6.0607361e+01
   6.6404770e+01   4.6838851e+01   6.0607361e+01
   6.7415881e+01   4.6838851e+01   6.0607361e+01
   6.8426992e+01   4.6838851e+01   6.0607361e+01
   6.9438103e+01   4.6838851e+01   6.0607361e+01
   6.4382548e+01   4.7849962e+01   6.0607361e+01
   6.5393659e+01   4.7849962e+01   6.0607361e+01
   6.6404770e+01   4.7849962e+01   6.0607361e+01
   6.7415881e+01   4.7849962e+01   6.0607361e+01
   6.8426992e+01   4.7849962e+01   6.0607361e+01
   6.9438103e+01   4.7849962e+01   6.0607361e+01
   6.4382548e+01   4.8861073e+01   6.0607361e+01
   6.5393659e+01   4.8861073e+01   6.0607361e+01
   7.2471436e+01   4.1783296e+01   6.1318299e+01
   6.8426992e+01   4.2794407e+01   6.1318299e+01
   6.9438103e+01   4.2794407e+01   6.1318299e+01
   7.0449214e+01   4.2794407e+01   6.1318299e+01
   7.1460325e+01   4.2794407e+01   6.1318299e+01
   7.2471436e+01   4.2794407e+01   6.1318299e+01
   6.4382548e+01   4.3805518e+01   6.1318299e+01
   6.5393659e+01   4.3805518e+01   6.1318299e+01
   6.6404770e+01   4.3805518e+01   6.1318299e+01
   6.7415881e+01   4.3805518e+01   6.1318299e+01
   6.8426992e+01   4.3805518e+01   6.1318299e+01
   6.9438103e+01   4.3805518e+01   6.1318299e+01
   7.0449214e+01   4.3805518e+01   6.1318299e+01
   7.1460325e+01   4.3805518e+01   6.1318299e+01
   7.2471436e+01   4.3805518e+01   6.1318299e+01
   6.3371438e+01   4.4816629e+01   6.1318299e+01
   6.4382548e+01   4.4816629e+01   6.1318299e+01
   6.5393659e+01   4.4816629e+01   6.1318299e+01
   6.6404770e+01   4.4816629e+01   6.1318299e+01
   6.7415881e+01   4.4816629e+01   6.1318299e+01
   6.8426992e+01   4.4816629e+01   6.1318299e+01
   6.9438103e+01   4.4816629e+01   6.1318299e+01
   7.0449214e+01   4.4816629e+01   6.1318299e+01
   7.1460325e+01   4.4816629e+01   6.1318299e+01
   7.2471436e+01   4.4816629e+01   6.1318299e+01
   7.3482547e+01   4.4816629e+01   6.1318299e+01
   6.3371438e+01   4.5827740e+01   6.1318299e+01
   6.4382548e+01   4.5827740e+01   6.1318299e+01
   6.5393659e+01   4.5827740e+01   6.1318299e+01
   6.6404770e+01   4.5827740e+01   6.1318299e+01
   6.7415881e+01   4.5827740e+01   6.1318299e+01
   6.8426992e+01   4.5827740e+01   6.1318299e+01
   6.9438103e+01   4.5827740e+01   6.1318299e+01
   7.0449214e+01   4.5827740e+01   6.1318299e+01
   7.1460325e+01   4.5827740e+01   6.1318299e+01
   7.2471436e+01   4.5827740e+01   6.1318299e+01
   7.3482547e+01   4.5827740e+01   6.1318299e+01
   6.3371438e+01   4.6838851e+01   6.1318299e+01
   6.4382548e+01   4.6838851e+01   6.1318299e+01
   6.5393659e+01   4.6838851e+01   6.1318299e+01
   6.6404770e+01   4.6838851e+01   6.1318299e+01
   6.7415881e+01   4.6838851e+01   6.1318299e+01
   6.8426992e+01   4.6838851e+01   6.1318299e+01
   6.9438103e+01   4.6838851e+01   6.1318299e+01
   7.0449214e+01   4.6838851e+01   6.1318299e+01
   7.1460325e+01   4.6838851e+01   6.1318299e+01
   7.2471436e+01   4.6838851e+01   6.1318299e+01
   6.4382548e+01   4.7849962e+01   6.1318299e+01
   6.5393659e+01   4.7849962e+01   6.1318299e+01
   6.6404770e+01   4.7849962e+01   6.1318299e+01
   6.7415881e+01   4.7849962e+01   6.1318299e+01
   6.8426992e+01   4.7849962e+01   6.1318299e+01
   6.4382548e+01   4.8861073e+01   6.1318299e+01
   7.1460325e+01   4.1783296e+01   6.2029237e+01
   7.2471436e+01   4.1783296e+01   6.2029237e+01
   6.7415881e+01   4.2794407e+01   6.2029237e+01
   6.8426992e+01   4.2794407e+01   6.2029237e+01
   6.9438103e+01   4.2794407e+01   6.2029237e+01
   7.0449214e+01   4.2794407e+01   6.2029237e+01
   7.1460325e+01   4.2794407e+01   6.2029237e+01
   7.2471436e+01   4.2794407e+01   6.2029237e+01
   6.3371438e+01   4.3805518e+01   6.2029237e+01
   6.4382548e+01   4.3805518e+01   6.2029237e+01
   6.5393659e+01   4.3805518e+01   6.2029237e+01
   6.6404770e+01   4.3805518e+01   6.2029237e+01
   6.7415881e+01   4.3805518e+01   6.2029237e+01
   6.8426992e+01   4.3805518e+01   6.2029237e+01
   6.9438103e+01   4.3805518e+01   6.2029237e+01
   7.0449214e+01   4.3805518e+01   6.2029237e+01
   7.1460325e+01   4.3805518e+01   6.2029237e+01
   7.2471436e+01   4.3805518e+01   6.2029237e+01
   6.3371438e+01   4.4816629e+01   6.2029237e+01
   6.4382548e+01   4.4816629e+01   6.2029237e+01
   6.5393659e+01   4.4816629e+01   6.2029237e+01
   6.6404770e+01   4.4816629e+01   6.2029237e+01
   6.7415881e+01   4.4816629e+01   6.2029237e+01
   6.8426992e+01   4.4816629e+01   6.2029237e+01
   6.9438103e+01   4.4816629e+01   6.2029237e+01
   7.0449214e+01   4.4816629e+01   6.2029237e+01
   7.1460325e+01   4.4816629e+01   6.2029237e+01
   7.2471436e+01   4.4816629e+01   6.2029237e+01
   6.3371438e+01   4.5827740e+01   6.2029237e+01
   6.4382548e+01   4.5827740e+01   6.2029237e+01
   6.5393659e+01   4.5827740e+01   6.2029237e+01
   6.6404770e+01   4.5827740e+01   6.2029237e+01
   6.7415881e+01   4.5827740e+01   6.2029237e+01
   6.8426992e+01   4.5827740e+01   6.2029237e+01
   6.9438103e+01   4.5827740e+01   6.2029237e+01
   7.0449214e+01   4.5827740e+01   6.2029237e+01
   7.1460325e+01   4.5827740e+01   6.2029237e+01
   7.2471436e+01   4.5827740e+01   6.2029237e+01
   7.3482547e+01   4.5827740e+01   6.2029237e+01
   6.3371438e+01   4.6838851e+01   6.2029237e+01
   6.4382548e+01   4.6838851e+01   6.2029237e+01
   6.5393659e+01   4.6838851e+01   6.2029237e+01
   6.6404770e+01   4.6838851e+01   6.2029237e+01
   6.7415881e+01   4.6838851e+01   6.2029237e+01
   6.8426992e+01   4.6838851e+01   6.2029237e+01
   6.9438103e+01   4.6838851e+01   6.2029237e+01
   7.0449214e+01   4.6838851e+01   6.2029237e+01
   7.1460325e+01   4.6838851e+01   6.2029237e+01
   7.2471436e+01   4.6838851e+01   6.2029237e+01
   6.4382548e+01   4.7849962e+01   6.2029237e+01
   6.5393659e+01   4.7849962e+01   6.2029237e+01
   6.6404770e+01   4.7849962e+01   6.2029237e+01
   6.7415881e+01   4.7849962e+01   6.2029237e+01
   7.0449214e+01   4.1783296e+01   6.2740175e+01
   7.1460325e+01   4.1783296e+01   6.2740175e+01
   6.6404770e+01   4.2794407e+01   6.2740175e+01
   6.7415881e+01   4.2794407e+01   6.2740175e+01
   6.8426992e+01   4.2794407e+01   6.2740175e+01
   6.9438103e+01   4.2794407e+01   6.2740175e+01
   7.0449214e+01   4.2794407e+01   6.2740175e+01
   7.1460325e+01   4.2794407e+01   6.2740175e+01
   7.2471436e+01   4.2794407e+01   6.2740175e+01
   6.2360327e+01   4.3805518e+01   6.2740175e+01
   6.3371438e+01   4.3805518e+01   6.2740175e+01
   6.4382548e+01   4.3805518e+01   6.2740175e+01
   6.5393659e+01   4.3805518e+01   6.2740175e+01
   6.6404770e+01   4.3805518e+01   6.2740175e+01
   6.7415881e+01   4.3805518e+01   6.2740175e+01
   6.8426992e+01   4.3805518e+01   6.2740175e+01
   6.9438103e+01   4.3805518e+01   6.2740175e+01
   7.0449214e+01   4.3805518e+01   6.2740175e+01
   7.1460325e+01   4.3805518e+01   6.2740175e+01
   7.2471436e+01   4.3805518e+01   6.2740175e+01
   6.3371438e+01   4.4816629e+01   6.2740175e+01
   6.4382548e+01   4.4816629e+01   6.2740175e+01
   6.5393659e+01   4.4816629e+01   6.2740175e+01
   6.6404770e+01   4.4816629e+01   6.2740175e+01
   6.7415881e+01   4.4816629e+01   6.2740175e+01
   6.8426992e+01   4.4816629e+01   6.2740175e+01
   6.9438103e+01   4.4816629e+01   6.2740175e+01
   7.0449214e+01   4.4816629e+01   6.2740175e+01
   7.1460325e+01   4.4816629e+01   6.2740175e+01
   7.2471436e+01   4.4816629e+01   6.2740175e+01
   6.3371438e+01   4.5827740e+01   6.2740175e+01
   6.4382548e+01   4.5827740e+01   6.2740175e+01
   6.5393659e+01   4.5827740e+01   6.2740175e+01
   6.6404770e+01   4.5827740e+01   6.2740175e+01
   6.7415881e+01   4.5827740e+01   6.2740175e+01
   6.8426992e+01   4.5827740e+01   6.2740175e+01
   6.9438103e+01   4.5827740e+01   6.2740175e+01
   7.0449214e+01   4.5827740e+01   6.2740175e+01
   7.1460325e+01   4.5827740e+01   6.2740175e+01
   7.2471436e+01   4.5827740e+01   6.2740175e+01
   7.3482547e+01   4.5827740e+01   6.2740175e+01
   6.3371438e+01   4.6838851e+01   6.2740175e+01
   6.4382548e+01   4.6838851e+01   6.2740175e+01
   6.5393659e+01   4.6838851e+01   6.2740175e+01
   6.6404770e+01   4.6838851e+01   6.2740175e+01
   6.7415881e+01   4.6838851e+01   6.2740175e+01
   6.8426992e+01   4.6838851e+01   6.2740175e+01
   6.9438103e+01   4.6838851e+01   6.2740175e+01
   7.0449214e+01   4.6838851e+01   6.2740175e+01
   7.1460325e+01   4.6838851e+01   6.2740175e+01
   6.3371438e+01   4.7849962e+01   6.2740175e+01
   6.4382548e+01   4.7849962e+01   6.2740175e+01
   6.5393659e+01   4.7849962e+01   6.2740175e+01
   6.6404770e+01   4.7849962e+01   6.2740175e+01
   7.0449214e+01   4.1783296e+01   6.3451113e+01
   7.1460325e+01   4.1783296e+01   6.3451113e+01
   6.5393659e+01   4.2794407e+01   6.3451113e+01
   6.6404770e+01   4.2794407e+01   6.3451113e+01
   6.7415881e+01   4.2794407e+01   6.3451113e+01
   6.8426992e+01   4.2794407e+01   6.3451113e+01
   6.9438103e+01   4.2794407e+01   6.3451113e+01
   7.0449214e+01   4.2794407e+01   6.3451113e+01
   7.1460325e+01   4.2794407e+01   6.3451113e+01
   7.2471436e+01   4.2794407e+01   6.3451113e+01
   6.4382548e+01   4.3805518e+01   6.3451113e+01
   6.5393659e+01   4.3805518e+01   6.3451113e+01
   6.6404770e+01   4.3805518e+01   6.3451113e+01
   6.7415881e+01   4.3805518e+01   6.3451113e+01
   6.8426992e+01   4.3805518e+01   6.3451113e+01
   6.9438103e+01   4.3805518e+01   6.3451113e+01
   7.0449214e+01   4.3805518e+01   6.3451113e+01
   7.1460325e+01   4.3805518e+01   6.3451113e+01
   7.2471436e+01   4.3805518e+01   6.3451113e+01
   6.4382548e+01   4.4816629e+01   6.3451113e+01
   6.5393659e+01   4.4816629e+01   6.3451113e+01
   6.6404770e+01   4.4816629e+01   6.3451113e+01
   6.7415881e+01   4.4816629e+01   6.3451113e+01
   6.8426992e+01   4.4816629e+01   6.3451113e+01
   6.9438103e+01   4.4816629e+01   6.3451113e+01
   7.0449214e+01   4.4816629e+01   6.3451113e+01
   7.1460325e+01   4.4816629e+01   6.3451113e+01
   7.2471436e+01   4.4816629e+01   6.3451113e+01
   6.3371438e+01   4.5827740e+01   6.3451113e+01
   6.4382548e+01   4.5827740e+01   6.3451113e+01
   6.5393659e+01   4.5827740e+01   6.3451113e+01
   6.6404770e+01   4.5827740e+01   6.3451113e+01
   6.7415881e+01   4.5827740e+01   6.3451113e+01
   6.8426992e+01   4.5827740e+01   6.3451113e+01
   6.9438103e+01   4.5827740e+01   6.3451113e+01
   7.0449214e+01   4.5827740e+01   6.3451113e+01
   7.1460325e+01   4.5827740e+01   6.3451113e+01
   7.2471436e+01   4.5827740e+01   6.3451113e+01
   6.3371438e+01   4.6838851e+01   6.3451113e+01
   6.4382548e+01   4.6838851e+01   6.3451113e+01
   6.5393659e+01   4.6838851e+01   6.3451113e+01
   6.6404770e+01   4.6838851e+01   6.3451113e+01
   6.7415881e+01   4.6838851e+01   6.3451113e+01
   6.8426992e+01   4.6838851e+01   6.3451113e+01
   6.9438103e+01   4.6838851e+01   6.3451113e+01
   7.0449214e+01   4.6838851e+01   6.3451113e+01
   6.3371438e+01   4.7849962e+01   6.3451113e+01
   6.4382548e+01   4.7849962e+01   6.3451113e+01
   6.5393659e+01   4.7849962e+01   6.3451113e+01
   6.9438103e+01   4.1783296e+01   6.4162051e+01
   7.0449214e+01   4.1783296e+01   6.4162051e+01
   7.1460325e+01   4.1783296e+01   6.4162051e+01
   6.8426992e+01   4.2794407e+01   6.4162051e+01
   6.9438103e+01   4.2794407e+01   6.4162051e+01
   7.0449214e+01   4.2794407e+01   6.4162051e+01
   7.1460325e+01   4.2794407e+01   6.4162051e+01
   6.7415881e+01   4.3805518e+01   6.4162051e+01
   6.8426992e+01   4.3805518e+01   6.4162051e+01
   6.9438103e+01   4.3805518e+01   6.4162051e+01
   7.0449214e+01   4.3805518e+01   6.4162051e+01
   7.1460325e+01   4.3805518e+01   6.4162051e+01
   7.2471436e+01   4.3805518e+01   6.4162051e+01
   6.6404770e+01   4.4816629e+01   6.4162051e+01
   6.7415881e+01   4.4816629e+01   6.4162051e+01
   6.8426992e+01   4.4816629e+01   6.4162051e+01
   6.9438103e+01   4.4816629e+01   6.4162051e+01
   7.0449214e+01   4.4816629e+01   6.4162051e+01
   7.1460325e+01   4.4816629e+01   6.4162051e+01
   7.2471436e+01   4.4816629e+01   6.4162051e+01
   6.5393659e+01   4.5827740e+01   6.4162051e+01
   6.6404770e+01   4.5827740e+01   6.4162051e+01
   6.7415881e+01   4.5827740e+01   6.4162051e+01
   6.8426992e+01   4.5827740e+01   6.4162051e+01
   6.9438103e+01   4.5827740e+01   6.4162051e+01
   7.0449214e+01   4.5827740e+01   6.4162051e+01
   7.1460325e+01   4.5827740e+01   6.4162051e+01
   7.2471436e+01   4.5827740e+01   6.4162051e+01
   6.4382548e+01   4.6838851e+01   6.4162051e+01
   6.5393659e+01   4.6838851e+01   6.4162051e+01
   6.6404770e+01   4.6838851e+01   6.4162051e+01
   6.7415881e+01   4.6838851e+01   6.4162051e+01
   6.8426992e+01   4.6838851e+01   6.4162051e+01
   6.9438103e+01   4.6838851e+01   6.4162051e+01
   6.4382548e+01   4.7849962e+01   6.4162051e+01
   6.5393659e+01   4.7849962e+01   6.4162051e+01
   7.0449214e+01   4.2794407e+01   6.4872989e+01
   7.1460325e+01   4.2794407e+01   6.4872989e+01
   6.9438103e+01   4.3805518e+01   6.4872989e+01
   7.0449214e+01   4.3805518e+01   6.4872989e+01
   7.1460325e+01   4.3805518e+01   6.4872989e+01
   6.8426992e+01   4.4816629e+01   6.4872989e+01
   6.9438103e+01   4.4816629e+01   6.4872989e+01
   7.0449214e+01   4.4816629e+01   6.4872989e+01
   7.1460325e+01   4.4816629e+01   6.4872989e+01
   6.8426992e+01   4.5827740e+01   6.4872989e+01
   6.9438103e+01   4.5827740e+01   6.4872989e+01
   7.0449214e+01   4.5827740e+01   6.4872989e+01
   7.1460325e+01   4.5827740e+01   6.4872989e+01
   6.7415881e+01   4.6838851e+01   6.4872989e+01
   6.8426992e+01   4.6838851e+01   6.4872989e+01
   7.1460325e+01   4.4816629e+01   6.5583927e+01
   7.0449214e+01   4.5827740e+01   6.5583927e+01
   7.1460325e+01   4.5827740e+01   6.5583927e+01
