   6.5939453e+01   4.3367188e+01   6.5050781e+01
   6.5761719e+01   4.3367188e+01   6.5228516e+01
   6.5583984e+01   4.3367188e+01   6.5050781e+01
   6.5761719e+01   4.3189453e+01   6.5406250e+01
   6.5939453e+01   4.3011719e+01   6.5406250e+01
   6.5761719e+01   4.2833984e+01   6.5406250e+01
   6.5583984e+01   4.3011719e+01   6.5406250e+01
   6.6828125e+01   4.3011719e+01   6.5228516e+01
   6.6828125e+01   4.3189453e+01   6.5050781e+01
   6.6828125e+01   4.3011719e+01   6.4873047e+01
   6.6828125e+01   4.2833984e+01   6.5050781e+01
   6.6472656e+01   4.3367188e+01   6.4873047e+01
   6.6650391e+01   4.3367188e+01   6.5050781e+01
   6.6472656e+01   4.3367188e+01   6.5228516e+01
   6.6294922e+01   4.3367188e+01   6.5050781e+01
   6.6472656e+01   4.3189453e+01   6.5406250e+01
   6.6650391e+01   4.3011719e+01   6.5406250e+01
   6.6472656e+01   4.2833984e+01   6.5406250e+01
   6.6294922e+01   4.3011719e+01   6.5406250e+01
   6.5495117e+01   4.3811523e+01   6.4961914e+01
   6.5495117e+01   4.3633789e+01   6.5139648e+01
   6.6117188e+01   4.3722656e+01   6.5228516e+01
   6.6117188e+01   4.3900391e+01   6.5050781e+01
   6.6117188e+01   4.3722656e+01   6.4873047e+01
   6.6117188e+01   4.3544922e+01   6.5050781e+01
   6.5850586e+01   4.3989258e+01   6.5139648e+01
   6.5672852e+01   4.3989258e+01   6.4961914e+01
   6.5761719e+01   4.3900391e+01   6.5406250e+01
   6.5939453e+01   4.3722656e+01   6.5406250e+01
   6.5761719e+01   4.3544922e+01   6.5406250e+01
   6.5583984e+01   4.3722656e+01   6.5406250e+01
   6.6828125e+01   4.3722656e+01   6.5228516e+01
   6.6828125e+01   4.3900391e+01   6.5050781e+01
   6.6828125e+01   4.3722656e+01   6.4873047e+01
   6.6828125e+01   4.3544922e+01   6.5050781e+01
   6.6561523e+01   4.3989258e+01   6.4961914e+01
   6.6383789e+01   4.3989258e+01   6.5139648e+01
   6.6472656e+01   4.3900391e+01   6.5406250e+01
   6.6650391e+01   4.3722656e+01   6.5406250e+01
   6.6472656e+01   4.3544922e+01   6.5406250e+01
   6.6294922e+01   4.3722656e+01   6.5406250e+01
   6.7539062e+01   4.3011719e+01   6.4517578e+01
   6.7539062e+01   4.3189453e+01   6.4339844e+01
   6.7539062e+01   4.3011719e+01   6.4162109e+01
   6.7539062e+01   4.2833984e+01   6.4339844e+01
   6.7183594e+01   4.3367188e+01   6.4162109e+01
   6.7361328e+01   4.3367188e+01   6.4339844e+01
   6.7183594e+01   4.3367188e+01   6.4517578e+01
   6.7005859e+01   4.3367188e+01   6.4339844e+01
   6.7183594e+01   4.3189453e+01   6.4695312e+01
   6.7361328e+01   4.3011719e+01   6.4695312e+01
   6.7183594e+01   4.2833984e+01   6.4695312e+01
   6.7005859e+01   4.3011719e+01   6.4695312e+01
   6.8250000e+01   4.3011719e+01   6.4517578e+01
   6.8250000e+01   4.2833984e+01   6.4339844e+01
   6.7894531e+01   4.3367188e+01   6.4162109e+01
   6.8072266e+01   4.3367188e+01   6.4339844e+01
   6.7894531e+01   4.3367188e+01   6.4517578e+01
   6.7716797e+01   4.3367188e+01   6.4339844e+01
   6.7894531e+01   4.3189453e+01   6.4695312e+01
   6.8072266e+01   4.3011719e+01   6.4695312e+01
   6.7894531e+01   4.2833984e+01   6.4695312e+01
   6.7716797e+01   4.3011719e+01   6.4695312e+01
   6.7539062e+01   4.3722656e+01   6.4517578e+01
   6.7539062e+01   4.3900391e+01   6.4339844e+01
   6.7539062e+01   4.3722656e+01   6.4162109e+01
   6.7539062e+01   4.3544922e+01   6.4339844e+01
   6.7183594e+01   4.4078125e+01   6.4162109e+01
   6.7361328e+01   4.4078125e+01   6.4339844e+01
   6.7183594e+01   4.4078125e+01   6.4517578e+01
   6.7005859e+01   4.4078125e+01   6.4339844e+01
   6.7183594e+01   4.3900391e+01   6.4695312e+01
   6.7361328e+01   4.3722656e+01   6.4695312e+01
   6.7183594e+01   4.3544922e+01   6.4695312e+01
   6.7005859e+01   4.3722656e+01   6.4695312e+01
   6.8250000e+01   4.3722656e+01   6.4517578e+01
   6.7894531e+01   4.4078125e+01   6.4162109e+01
   6.8072266e+01   4.4078125e+01   6.4339844e+01
   6.7894531e+01   4.4078125e+01   6.4517578e+01
   6.7716797e+01   4.4078125e+01   6.4339844e+01
   6.7894531e+01   4.3900391e+01   6.4695312e+01
   6.8072266e+01   4.3722656e+01   6.4695312e+01
   6.7894531e+01   4.3544922e+01   6.4695312e+01
   6.7716797e+01   4.3722656e+01   6.4695312e+01
   6.7539062e+01   4.3011719e+01   6.5228516e+01
   6.7539062e+01   4.3189453e+01   6.5050781e+01
   6.7539062e+01   4.3011719e+01   6.4873047e+01
   6.7539062e+01   4.2833984e+01   6.5050781e+01
   6.7183594e+01   4.3367188e+01   6.4873047e+01
   6.7361328e+01   4.3367188e+01   6.5050781e+01
   6.7183594e+01   4.3367188e+01   6.5228516e+01
   6.7005859e+01   4.3367188e+01   6.5050781e+01
   6.7183594e+01   4.3189453e+01   6.5406250e+01
   6.7361328e+01   4.3011719e+01   6.5406250e+01
   6.7183594e+01   4.2833984e+01   6.5406250e+01
   6.7005859e+01   4.3011719e+01   6.5406250e+01
   6.8250000e+01   4.3011719e+01   6.5228516e+01
   6.8250000e+01   4.3189453e+01   6.5050781e+01
   6.8250000e+01   4.3011719e+01   6.4873047e+01
   6.8250000e+01   4.2833984e+01   6.5050781e+01
   6.7894531e+01   4.3367188e+01   6.4873047e+01
   6.8072266e+01   4.3367188e+01   6.5050781e+01
   6.7894531e+01   4.3367188e+01   6.5228516e+01
   6.7716797e+01   4.3367188e+01   6.5050781e+01
   6.7894531e+01   4.3189453e+01   6.5406250e+01
   6.8072266e+01   4.3011719e+01   6.5406250e+01
   6.7894531e+01   4.2833984e+01   6.5406250e+01
   6.7716797e+01   4.3011719e+01   6.5406250e+01
   6.7539062e+01   4.3722656e+01   6.5228516e+01
   6.7539062e+01   4.3900391e+01   6.5050781e+01
   6.7539062e+01   4.3722656e+01   6.4873047e+01
   6.7539062e+01   4.3544922e+01   6.5050781e+01
   6.7183594e+01   4.4078125e+01   6.4873047e+01
   6.7361328e+01   4.4078125e+01   6.5050781e+01
   6.7183594e+01   4.4078125e+01   6.5228516e+01
   6.7005859e+01   4.4078125e+01   6.5050781e+01
   6.7183594e+01   4.3900391e+01   6.5406250e+01
   6.7361328e+01   4.3722656e+01   6.5406250e+01
   6.7183594e+01   4.3544922e+01   6.5406250e+01
   6.7005859e+01   4.3722656e+01   6.5406250e+01
   6.8250000e+01   4.3722656e+01   6.5228516e+01
   6.8250000e+01   4.3900391e+01   6.5050781e+01
   6.8250000e+01   4.3722656e+01   6.4873047e+01
   6.8250000e+01   4.3544922e+01   6.5050781e+01
   6.7894531e+01   4.4078125e+01   6.4873047e+01
   6.8072266e+01   4.4078125e+01   6.5050781e+01
   6.7894531e+01   4.4078125e+01   6.5228516e+01
   6.7716797e+01   4.4078125e+01   6.5050781e+01
   6.7894531e+01   4.3900391e+01   6.5406250e+01
   6.8072266e+01   4.3722656e+01   6.5406250e+01
   6.7894531e+01   4.3544922e+01   6.5406250e+01
   6.7716797e+01   4.3722656e+01   6.5406250e+01
   6.6916992e+01   4.4522461e+01   6.4250977e+01
   6.6916992e+01   4.4344727e+01   6.4428711e+01
   6.7539062e+01   4.4433594e+01   6.4517578e+01
   6.7539062e+01   4.4611328e+01   6.4339844e+01
   6.7539062e+01   4.4433594e+01   6.4162109e+01
   6.7539062e+01   4.4255859e+01   6.4339844e+01
   6.7183594e+01   4.4789062e+01   6.4162109e+01
   6.7361328e+01   4.4789062e+01   6.4339844e+01
   6.7183594e+01   4.4789062e+01   6.4517578e+01
   6.7005859e+01   4.4789062e+01   6.4339844e+01
   6.7272461e+01   4.4344727e+01   6.4073242e+01
   6.7094727e+01   4.4522461e+01   6.4073242e+01
   6.7183594e+01   4.4611328e+01   6.4695312e+01
   6.7361328e+01   4.4433594e+01   6.4695312e+01
   6.7183594e+01   4.4255859e+01   6.4695312e+01
   6.7005859e+01   4.4433594e+01   6.4695312e+01
   6.7894531e+01   4.4789062e+01   6.4517578e+01
   6.7716797e+01   4.4789062e+01   6.4339844e+01
   6.7805664e+01   4.4344727e+01   6.4073242e+01
   6.7894531e+01   4.4611328e+01   6.4695312e+01
   6.8072266e+01   4.4433594e+01   6.4695312e+01
   6.7894531e+01   4.4255859e+01   6.4695312e+01
   6.7716797e+01   4.4433594e+01   6.4695312e+01
   6.6916992e+01   4.5233398e+01   6.4428711e+01
   6.6916992e+01   4.5055664e+01   6.4250977e+01
   6.7539062e+01   4.5144531e+01   6.4517578e+01
   6.7539062e+01   4.5322266e+01   6.4339844e+01
   6.7539062e+01   4.5144531e+01   6.4162109e+01
   6.7539062e+01   4.4966797e+01   6.4339844e+01
   6.7183594e+01   4.5500000e+01   6.4162109e+01
   6.7361328e+01   4.5500000e+01   6.4339844e+01
   6.7183594e+01   4.5500000e+01   6.4517578e+01
   6.7005859e+01   4.5500000e+01   6.4339844e+01
   6.7272461e+01   4.5233398e+01   6.4073242e+01
   6.7094727e+01   4.5055664e+01   6.4073242e+01
   6.7183594e+01   4.5322266e+01   6.4695312e+01
   6.7361328e+01   4.5144531e+01   6.4695312e+01
   6.7183594e+01   4.4966797e+01   6.4695312e+01
   6.7005859e+01   4.5144531e+01   6.4695312e+01
   6.7894531e+01   4.5500000e+01   6.4517578e+01
   6.7716797e+01   4.5500000e+01   6.4339844e+01
   6.7894531e+01   4.5322266e+01   6.4695312e+01
   6.8072266e+01   4.5144531e+01   6.4695312e+01
   6.7894531e+01   4.4966797e+01   6.4695312e+01
   6.7716797e+01   4.5144531e+01   6.4695312e+01
   6.6916992e+01   4.4522461e+01   6.5139648e+01
   6.6916992e+01   4.4344727e+01   6.4961914e+01
   6.7539062e+01   4.4433594e+01   6.5228516e+01
   6.7539062e+01   4.4611328e+01   6.5050781e+01
   6.7539062e+01   4.4433594e+01   6.4873047e+01
   6.7539062e+01   4.4255859e+01   6.5050781e+01
   6.7183594e+01   4.4789062e+01   6.4873047e+01
   6.7361328e+01   4.4789062e+01   6.5050781e+01
   6.7183594e+01   4.4789062e+01   6.5228516e+01
   6.7005859e+01   4.4789062e+01   6.5050781e+01
   6.7183594e+01   4.4611328e+01   6.5406250e+01
   6.7361328e+01   4.4433594e+01   6.5406250e+01
   6.7183594e+01   4.4255859e+01   6.5406250e+01
   6.7005859e+01   4.4433594e+01   6.5406250e+01
   6.8250000e+01   4.4433594e+01   6.5228516e+01
   6.8250000e+01   4.4611328e+01   6.5050781e+01
   6.8250000e+01   4.4433594e+01   6.4873047e+01
   6.8250000e+01   4.4255859e+01   6.5050781e+01
   6.7894531e+01   4.4789062e+01   6.4873047e+01
   6.8072266e+01   4.4789062e+01   6.5050781e+01
   6.7894531e+01   4.4789062e+01   6.5228516e+01
   6.7716797e+01   4.4789062e+01   6.5050781e+01
   6.7894531e+01   4.4611328e+01   6.5406250e+01
   6.8072266e+01   4.4433594e+01   6.5406250e+01
   6.7894531e+01   4.4255859e+01   6.5406250e+01
   6.7716797e+01   4.4433594e+01   6.5406250e+01
   6.6916992e+01   4.5233398e+01   6.4961914e+01
   6.6916992e+01   4.5055664e+01   6.5139648e+01
   6.7539062e+01   4.5144531e+01   6.5228516e+01
   6.7539062e+01   4.5322266e+01   6.5050781e+01
   6.7539062e+01   4.5144531e+01   6.4873047e+01
   6.7539062e+01   4.4966797e+01   6.5050781e+01
   6.7183594e+01   4.5500000e+01   6.4873047e+01
   6.7361328e+01   4.5500000e+01   6.5050781e+01
   6.7183594e+01   4.5500000e+01   6.5228516e+01
   6.7005859e+01   4.5500000e+01   6.5050781e+01
   6.7183594e+01   4.5322266e+01   6.5406250e+01
   6.7361328e+01   4.5144531e+01   6.5406250e+01
   6.7183594e+01   4.4966797e+01   6.5406250e+01
   6.7005859e+01   4.5144531e+01   6.5406250e+01
   6.8250000e+01   4.5144531e+01   6.5228516e+01
   6.8250000e+01   4.5322266e+01   6.5050781e+01
   6.8250000e+01   4.5144531e+01   6.4873047e+01
   6.8250000e+01   4.4966797e+01   6.5050781e+01
   6.7894531e+01   4.5500000e+01   6.4873047e+01
   6.8072266e+01   4.5500000e+01   6.5050781e+01
   6.7894531e+01   4.5500000e+01   6.5228516e+01
   6.7716797e+01   4.5500000e+01   6.5050781e+01
   6.7894531e+01   4.5322266e+01   6.5406250e+01
   6.8072266e+01   4.5144531e+01   6.5406250e+01
   6.7894531e+01   4.4966797e+01   6.5406250e+01
   6.7716797e+01   4.5144531e+01   6.5406250e+01
   6.5228516e+01   4.1234375e+01   6.6472656e+01
   6.5050781e+01   4.1234375e+01   6.6650391e+01
   6.4695312e+01   4.1589844e+01   6.5939453e+01
   6.4695312e+01   4.1767578e+01   6.5761719e+01
   6.4339844e+01   4.1945312e+01   6.5583984e+01
   6.4517578e+01   4.1945312e+01   6.5761719e+01
   6.4339844e+01   4.1945312e+01   6.5939453e+01
   6.4162109e+01   4.1945312e+01   6.5761719e+01
   6.4339844e+01   4.1767578e+01   6.6117188e+01
   6.4517578e+01   4.1589844e+01   6.6117188e+01
   6.4162109e+01   4.1589844e+01   6.6117188e+01
   6.5406250e+01   4.1589844e+01   6.5939453e+01
   6.5406250e+01   4.1767578e+01   6.5761719e+01
   6.5406250e+01   4.1589844e+01   6.5583984e+01
   6.5050781e+01   4.1945312e+01   6.5583984e+01
   6.5228516e+01   4.1945312e+01   6.5761719e+01
   6.5050781e+01   4.1945312e+01   6.5939453e+01
   6.4873047e+01   4.1945312e+01   6.5761719e+01
   6.5139648e+01   4.1678711e+01   6.5495117e+01
   6.5050781e+01   4.1767578e+01   6.6117188e+01
   6.5228516e+01   4.1589844e+01   6.6117188e+01
   6.5050781e+01   4.1412109e+01   6.6117188e+01
   6.4873047e+01   4.1589844e+01   6.6117188e+01
   6.4073242e+01   4.2389648e+01   6.5850586e+01
   6.4073242e+01   4.2211914e+01   6.5672852e+01
   6.4695312e+01   4.2300781e+01   6.5939453e+01
   6.4695312e+01   4.2478516e+01   6.5761719e+01
   6.4695312e+01   4.2300781e+01   6.5583984e+01
   6.4695312e+01   4.2123047e+01   6.5761719e+01
   6.4339844e+01   4.2656250e+01   6.5583984e+01
   6.4517578e+01   4.2656250e+01   6.5761719e+01
   6.4339844e+01   4.2656250e+01   6.5939453e+01
   6.4162109e+01   4.2656250e+01   6.5761719e+01
   6.4428711e+01   4.2389648e+01   6.5495117e+01
   6.4250977e+01   4.2211914e+01   6.5495117e+01
   6.4339844e+01   4.2478516e+01   6.6117188e+01
   6.4517578e+01   4.2300781e+01   6.6117188e+01
   6.4339844e+01   4.2123047e+01   6.6117188e+01
   6.4162109e+01   4.2300781e+01   6.6117188e+01
   6.5406250e+01   4.2300781e+01   6.5939453e+01
   6.5406250e+01   4.2478516e+01   6.5761719e+01
   6.5406250e+01   4.2300781e+01   6.5583984e+01
   6.5406250e+01   4.2123047e+01   6.5761719e+01
   6.5050781e+01   4.2656250e+01   6.5583984e+01
   6.5228516e+01   4.2656250e+01   6.5761719e+01
   6.5050781e+01   4.2656250e+01   6.5939453e+01
   6.4873047e+01   4.2656250e+01   6.5761719e+01
   6.5139648e+01   4.2211914e+01   6.5495117e+01
   6.4961914e+01   4.2389648e+01   6.5495117e+01
   6.5050781e+01   4.2478516e+01   6.6117188e+01
   6.5228516e+01   4.2300781e+01   6.6117188e+01
   6.5050781e+01   4.2123047e+01   6.6117188e+01
   6.4873047e+01   4.2300781e+01   6.6117188e+01
   6.4073242e+01   4.1678711e+01   6.6561523e+01
   6.4073242e+01   4.1500977e+01   6.6383789e+01
   6.4695312e+01   4.1589844e+01   6.6650391e+01
   6.4695312e+01   4.1767578e+01   6.6472656e+01
   6.4695312e+01   4.1589844e+01   6.6294922e+01
   6.4695312e+01   4.1412109e+01   6.6472656e+01
   6.4339844e+01   4.1945312e+01   6.6294922e+01
   6.4517578e+01   4.1945312e+01   6.6472656e+01
   6.4339844e+01   4.1945312e+01   6.6650391e+01
   6.4162109e+01   4.1945312e+01   6.6472656e+01
   6.4339844e+01   4.1767578e+01   6.6828125e+01
   6.4517578e+01   4.1589844e+01   6.6828125e+01
   6.4339844e+01   4.1412109e+01   6.6828125e+01
   6.4162109e+01   4.1589844e+01   6.6828125e+01
   6.5406250e+01   4.1589844e+01   6.6650391e+01
   6.5406250e+01   4.1767578e+01   6.6472656e+01
   6.5406250e+01   4.1589844e+01   6.6294922e+01
   6.5406250e+01   4.1412109e+01   6.6472656e+01
   6.5050781e+01   4.1945312e+01   6.6294922e+01
   6.5228516e+01   4.1945312e+01   6.6472656e+01
   6.5050781e+01   4.1945312e+01   6.6650391e+01
   6.4873047e+01   4.1945312e+01   6.6472656e+01
   6.5050781e+01   4.1767578e+01   6.6828125e+01
   6.5228516e+01   4.1589844e+01   6.6828125e+01
   6.5050781e+01   4.1412109e+01   6.6828125e+01
   6.4873047e+01   4.1589844e+01   6.6828125e+01
   6.4073242e+01   4.2389648e+01   6.6383789e+01
   6.4073242e+01   4.2211914e+01   6.6561523e+01
   6.4695312e+01   4.2300781e+01   6.6650391e+01
   6.4695312e+01   4.2478516e+01   6.6472656e+01
   6.4695312e+01   4.2300781e+01   6.6294922e+01
   6.4695312e+01   4.2123047e+01   6.6472656e+01
   6.4339844e+01   4.2656250e+01   6.6294922e+01
   6.4517578e+01   4.2656250e+01   6.6472656e+01
   6.4339844e+01   4.2656250e+01   6.6650391e+01
   6.4162109e+01   4.2656250e+01   6.6472656e+01
   6.4339844e+01   4.2478516e+01   6.6828125e+01
   6.4517578e+01   4.2300781e+01   6.6828125e+01
   6.4339844e+01   4.2123047e+01   6.6828125e+01
   6.4162109e+01   4.2300781e+01   6.6828125e+01
   6.5406250e+01   4.2300781e+01   6.6650391e+01
   6.5406250e+01   4.2478516e+01   6.6472656e+01
   6.5406250e+01   4.2300781e+01   6.6294922e+01
   6.5406250e+01   4.2123047e+01   6.6472656e+01
   6.5050781e+01   4.2656250e+01   6.6294922e+01
   6.5228516e+01   4.2656250e+01   6.6472656e+01
   6.5050781e+01   4.2656250e+01   6.6650391e+01
   6.4873047e+01   4.2656250e+01   6.6472656e+01
   6.5050781e+01   4.2478516e+01   6.6828125e+01
   6.5228516e+01   4.2300781e+01   6.6828125e+01
   6.5050781e+01   4.2123047e+01   6.6828125e+01
   6.4873047e+01   4.2300781e+01   6.6828125e+01
   6.4695312e+01   4.1056641e+01   6.7183594e+01
   6.4339844e+01   4.1234375e+01   6.7005859e+01
   6.4517578e+01   4.1234375e+01   6.7183594e+01
   6.5406250e+01   4.0878906e+01   6.7361328e+01
   6.5406250e+01   4.1056641e+01   6.7183594e+01
   6.5050781e+01   4.1234375e+01   6.7005859e+01
   6.5228516e+01   4.1234375e+01   6.7183594e+01
   6.5050781e+01   4.1234375e+01   6.7361328e+01
   6.4873047e+01   4.1234375e+01   6.7183594e+01
   6.5050781e+01   4.1056641e+01   6.7539062e+01
   6.5228516e+01   4.0878906e+01   6.7539062e+01
   6.4873047e+01   4.0878906e+01   6.7539062e+01
   6.5406250e+01   4.0878906e+01   6.8072266e+01
   6.5406250e+01   4.1056641e+01   6.7894531e+01
   6.5406250e+01   4.0878906e+01   6.7716797e+01
   6.5406250e+01   4.0701172e+01   6.7894531e+01
   6.5050781e+01   4.1234375e+01   6.7716797e+01
   6.5228516e+01   4.1234375e+01   6.7894531e+01
   6.5050781e+01   4.1234375e+01   6.8072266e+01
   6.4873047e+01   4.1234375e+01   6.7894531e+01
   6.5228516e+01   4.0878906e+01   6.8250000e+01
   6.4695312e+01   4.1589844e+01   6.7361328e+01
   6.4695312e+01   4.1767578e+01   6.7183594e+01
   6.4695312e+01   4.1589844e+01   6.7005859e+01
   6.4695312e+01   4.1412109e+01   6.7183594e+01
   6.4339844e+01   4.1945312e+01   6.7005859e+01
   6.4517578e+01   4.1945312e+01   6.7183594e+01
   6.5406250e+01   4.1589844e+01   6.7361328e+01
   6.5406250e+01   4.1767578e+01   6.7183594e+01
   6.5406250e+01   4.1589844e+01   6.7005859e+01
   6.5406250e+01   4.1412109e+01   6.7183594e+01
   6.5050781e+01   4.1945312e+01   6.7005859e+01
   6.5228516e+01   4.1945312e+01   6.7183594e+01
   6.5050781e+01   4.1945312e+01   6.7361328e+01
   6.4873047e+01   4.1945312e+01   6.7183594e+01
   6.5050781e+01   4.1767578e+01   6.7539062e+01
   6.5228516e+01   4.1589844e+01   6.7539062e+01
   6.5050781e+01   4.1412109e+01   6.7539062e+01
   6.4873047e+01   4.1589844e+01   6.7539062e+01
   6.4695312e+01   4.2300781e+01   6.7361328e+01
   6.4695312e+01   4.2478516e+01   6.7183594e+01
   6.4695312e+01   4.2300781e+01   6.7005859e+01
   6.4695312e+01   4.2123047e+01   6.7183594e+01
   6.4339844e+01   4.2656250e+01   6.7005859e+01
   6.4517578e+01   4.2656250e+01   6.7183594e+01
   6.4339844e+01   4.2656250e+01   6.7361328e+01
   6.4162109e+01   4.2656250e+01   6.7183594e+01
   6.4517578e+01   4.2300781e+01   6.7539062e+01
   6.5406250e+01   4.2300781e+01   6.7361328e+01
   6.5406250e+01   4.2478516e+01   6.7183594e+01
   6.5406250e+01   4.2300781e+01   6.7005859e+01
   6.5406250e+01   4.2123047e+01   6.7183594e+01
   6.5050781e+01   4.2656250e+01   6.7005859e+01
   6.5228516e+01   4.2656250e+01   6.7183594e+01
   6.5050781e+01   4.2656250e+01   6.7361328e+01
   6.4873047e+01   4.2656250e+01   6.7183594e+01
   6.5050781e+01   4.2478516e+01   6.7539062e+01
   6.5228516e+01   4.2300781e+01   6.7539062e+01
   6.5050781e+01   4.2123047e+01   6.7539062e+01
   6.4873047e+01   4.2300781e+01   6.7539062e+01
   6.4695312e+01   4.1589844e+01   6.7716797e+01
   6.5406250e+01   4.1589844e+01   6.8072266e+01
   6.5406250e+01   4.1767578e+01   6.7894531e+01
   6.5406250e+01   4.1589844e+01   6.7716797e+01
   6.5406250e+01   4.1412109e+01   6.7894531e+01
   6.5050781e+01   4.1945312e+01   6.7716797e+01
   6.5228516e+01   4.1945312e+01   6.7894531e+01
   6.5050781e+01   4.1945312e+01   6.8072266e+01
   6.4873047e+01   4.1945312e+01   6.7894531e+01
   6.5050781e+01   4.1767578e+01   6.8250000e+01
   6.5228516e+01   4.1589844e+01   6.8250000e+01
   6.5050781e+01   4.1412109e+01   6.8250000e+01
   6.4695312e+01   4.2478516e+01   6.7894531e+01
   6.4695312e+01   4.2300781e+01   6.7716797e+01
   6.4695312e+01   4.2123047e+01   6.7894531e+01
   6.5406250e+01   4.2300781e+01   6.8072266e+01
   6.5406250e+01   4.2478516e+01   6.7894531e+01
   6.5406250e+01   4.2300781e+01   6.7716797e+01
   6.5406250e+01   4.2123047e+01   6.7894531e+01
   6.5050781e+01   4.2656250e+01   6.7716797e+01
   6.5228516e+01   4.2656250e+01   6.7894531e+01
   6.5050781e+01   4.2656250e+01   6.8072266e+01
   6.4873047e+01   4.2656250e+01   6.7894531e+01
   6.5050781e+01   4.2478516e+01   6.8250000e+01
   6.5228516e+01   4.2300781e+01   6.8250000e+01
   6.5050781e+01   4.2123047e+01   6.8250000e+01
   6.5761719e+01   4.1234375e+01   6.6294922e+01
   6.5939453e+01   4.1234375e+01   6.6472656e+01
   6.5761719e+01   4.1234375e+01   6.6650391e+01
   6.5583984e+01   4.1234375e+01   6.6472656e+01
   6.5761719e+01   4.1056641e+01   6.6828125e+01
   6.6828125e+01   4.1056641e+01   6.6472656e+01
   6.6472656e+01   4.1234375e+01   6.6294922e+01
   6.6650391e+01   4.1234375e+01   6.6472656e+01
   6.6472656e+01   4.1234375e+01   6.6650391e+01
   6.6294922e+01   4.1234375e+01   6.6472656e+01
   6.6472656e+01   4.1056641e+01   6.6828125e+01
   6.7361328e+01   4.1234375e+01   6.5761719e+01
   6.7183594e+01   4.1234375e+01   6.5939453e+01
   6.7894531e+01   4.1234375e+01   6.5583984e+01
   6.8072266e+01   4.1234375e+01   6.5761719e+01
   6.7894531e+01   4.1234375e+01   6.5939453e+01
   6.7716797e+01   4.1234375e+01   6.5761719e+01
   6.7894531e+01   4.1056641e+01   6.6117188e+01
   6.7539062e+01   4.0878906e+01   6.6650391e+01
   6.7539062e+01   4.1056641e+01   6.6472656e+01
   6.7183594e+01   4.1234375e+01   6.6294922e+01
   6.7361328e+01   4.1234375e+01   6.6472656e+01
   6.7183594e+01   4.1234375e+01   6.6650391e+01
   6.7005859e+01   4.1234375e+01   6.6472656e+01
   6.7183594e+01   4.1056641e+01   6.6828125e+01
   6.7361328e+01   4.0878906e+01   6.6828125e+01
   6.7005859e+01   4.0878906e+01   6.6828125e+01
   6.8250000e+01   4.0878906e+01   6.6650391e+01
   6.8250000e+01   4.1056641e+01   6.6472656e+01
   6.7894531e+01   4.1234375e+01   6.6294922e+01
   6.8072266e+01   4.1234375e+01   6.6472656e+01
   6.7894531e+01   4.1234375e+01   6.6650391e+01
   6.7716797e+01   4.1234375e+01   6.6472656e+01
   6.7894531e+01   4.1056641e+01   6.6828125e+01
   6.8072266e+01   4.0878906e+01   6.6828125e+01
   6.7716797e+01   4.0878906e+01   6.6828125e+01
   6.6117188e+01   4.1589844e+01   6.5939453e+01
   6.6117188e+01   4.1767578e+01   6.5761719e+01
   6.6117188e+01   4.1589844e+01   6.5583984e+01
   6.6117188e+01   4.1412109e+01   6.5761719e+01
   6.5761719e+01   4.1945312e+01   6.5583984e+01
   6.5939453e+01   4.1945312e+01   6.5761719e+01
   6.5761719e+01   4.1945312e+01   6.5939453e+01
   6.5583984e+01   4.1945312e+01   6.5761719e+01
   6.5761719e+01   4.1767578e+01   6.6117188e+01
   6.5939453e+01   4.1589844e+01   6.6117188e+01
   6.5761719e+01   4.1412109e+01   6.6117188e+01
   6.5583984e+01   4.1589844e+01   6.6117188e+01
   6.6828125e+01   4.1589844e+01   6.5939453e+01
   6.6828125e+01   4.1767578e+01   6.5761719e+01
   6.6828125e+01   4.1589844e+01   6.5583984e+01
   6.6828125e+01   4.1412109e+01   6.5761719e+01
   6.6472656e+01   4.1945312e+01   6.5583984e+01
   6.6650391e+01   4.1945312e+01   6.5761719e+01
   6.6472656e+01   4.1945312e+01   6.5939453e+01
   6.6294922e+01   4.1945312e+01   6.5761719e+01
   6.6472656e+01   4.1767578e+01   6.6117188e+01
   6.6650391e+01   4.1589844e+01   6.6117188e+01
   6.6472656e+01   4.1412109e+01   6.6117188e+01
   6.6294922e+01   4.1589844e+01   6.6117188e+01
   6.6117188e+01   4.2300781e+01   6.5939453e+01
   6.6117188e+01   4.2478516e+01   6.5761719e+01
   6.6117188e+01   4.2300781e+01   6.5583984e+01
   6.6117188e+01   4.2123047e+01   6.5761719e+01
   6.5761719e+01   4.2656250e+01   6.5583984e+01
   6.5939453e+01   4.2656250e+01   6.5761719e+01
   6.5761719e+01   4.2656250e+01   6.5939453e+01
   6.5583984e+01   4.2656250e+01   6.5761719e+01
   6.5761719e+01   4.2478516e+01   6.6117188e+01
   6.5939453e+01   4.2300781e+01   6.6117188e+01
   6.5761719e+01   4.2123047e+01   6.6117188e+01
   6.5583984e+01   4.2300781e+01   6.6117188e+01
   6.6828125e+01   4.2300781e+01   6.5939453e+01
   6.6828125e+01   4.2478516e+01   6.5761719e+01
   6.6828125e+01   4.2300781e+01   6.5583984e+01
   6.6828125e+01   4.2123047e+01   6.5761719e+01
   6.6472656e+01   4.2656250e+01   6.5583984e+01
   6.6650391e+01   4.2656250e+01   6.5761719e+01
   6.6472656e+01   4.2656250e+01   6.5939453e+01
   6.6294922e+01   4.2656250e+01   6.5761719e+01
   6.6472656e+01   4.2478516e+01   6.6117188e+01
   6.6650391e+01   4.2300781e+01   6.6117188e+01
   6.6472656e+01   4.2123047e+01   6.6117188e+01
   6.6294922e+01   4.2300781e+01   6.6117188e+01
   6.6117188e+01   4.1589844e+01   6.6650391e+01
   6.6117188e+01   4.1767578e+01   6.6472656e+01
   6.6117188e+01   4.1589844e+01   6.6294922e+01
   6.6117188e+01   4.1412109e+01   6.6472656e+01
   6.5761719e+01   4.1945312e+01   6.6294922e+01
   6.5939453e+01   4.1945312e+01   6.6472656e+01
   6.5761719e+01   4.1945312e+01   6.6650391e+01
   6.5583984e+01   4.1945312e+01   6.6472656e+01
   6.5761719e+01   4.1767578e+01   6.6828125e+01
   6.5939453e+01   4.1589844e+01   6.6828125e+01
   6.5761719e+01   4.1412109e+01   6.6828125e+01
   6.5583984e+01   4.1589844e+01   6.6828125e+01
   6.6828125e+01   4.1589844e+01   6.6650391e+01
   6.6828125e+01   4.1767578e+01   6.6472656e+01
   6.6828125e+01   4.1589844e+01   6.6294922e+01
   6.6828125e+01   4.1412109e+01   6.6472656e+01
   6.6472656e+01   4.1945312e+01   6.6294922e+01
   6.6650391e+01   4.1945312e+01   6.6472656e+01
   6.6472656e+01   4.1945312e+01   6.6650391e+01
   6.6294922e+01   4.1945312e+01   6.6472656e+01
   6.6472656e+01   4.1767578e+01   6.6828125e+01
   6.6650391e+01   4.1589844e+01   6.6828125e+01
   6.6472656e+01   4.1412109e+01   6.6828125e+01
   6.6294922e+01   4.1589844e+01   6.6828125e+01
   6.6117188e+01   4.2300781e+01   6.6650391e+01
   6.6117188e+01   4.2478516e+01   6.6472656e+01
   6.6117188e+01   4.2300781e+01   6.6294922e+01
   6.6117188e+01   4.2123047e+01   6.6472656e+01
   6.5761719e+01   4.2656250e+01   6.6294922e+01
   6.5939453e+01   4.2656250e+01   6.6472656e+01
   6.5761719e+01   4.2656250e+01   6.6650391e+01
   6.5583984e+01   4.2656250e+01   6.6472656e+01
   6.5761719e+01   4.2478516e+01   6.6828125e+01
   6.5939453e+01   4.2300781e+01   6.6828125e+01
   6.5761719e+01   4.2123047e+01   6.6828125e+01
   6.5583984e+01   4.2300781e+01   6.6828125e+01
   6.6828125e+01   4.2300781e+01   6.6650391e+01
   6.6828125e+01   4.2478516e+01   6.6472656e+01
   6.6828125e+01   4.2300781e+01   6.6294922e+01
   6.6828125e+01   4.2123047e+01   6.6472656e+01
   6.6472656e+01   4.2656250e+01   6.6294922e+01
   6.6650391e+01   4.2656250e+01   6.6472656e+01
   6.6472656e+01   4.2656250e+01   6.6650391e+01
   6.6294922e+01   4.2656250e+01   6.6472656e+01
   6.6472656e+01   4.2478516e+01   6.6828125e+01
   6.6650391e+01   4.2300781e+01   6.6828125e+01
   6.6472656e+01   4.2123047e+01   6.6828125e+01
   6.6294922e+01   4.2300781e+01   6.6828125e+01
   6.7539062e+01   4.1589844e+01   6.5939453e+01
   6.7539062e+01   4.1767578e+01   6.5761719e+01
   6.7539062e+01   4.1589844e+01   6.5583984e+01
   6.7539062e+01   4.1412109e+01   6.5761719e+01
   6.7183594e+01   4.1945312e+01   6.5583984e+01
   6.7361328e+01   4.1945312e+01   6.5761719e+01
   6.7183594e+01   4.1945312e+01   6.5939453e+01
   6.7005859e+01   4.1945312e+01   6.5761719e+01
   6.7183594e+01   4.1767578e+01   6.6117188e+01
   6.7361328e+01   4.1589844e+01   6.6117188e+01
   6.7183594e+01   4.1412109e+01   6.6117188e+01
   6.7005859e+01   4.1589844e+01   6.6117188e+01
   6.8250000e+01   4.1589844e+01   6.5939453e+01
   6.8250000e+01   4.1767578e+01   6.5761719e+01
   6.8250000e+01   4.1589844e+01   6.5583984e+01
   6.8250000e+01   4.1412109e+01   6.5761719e+01
   6.7894531e+01   4.1945312e+01   6.5583984e+01
   6.8072266e+01   4.1945312e+01   6.5761719e+01
   6.7894531e+01   4.1945312e+01   6.5939453e+01
   6.7716797e+01   4.1945312e+01   6.5761719e+01
   6.7894531e+01   4.1767578e+01   6.6117188e+01
   6.8072266e+01   4.1589844e+01   6.6117188e+01
   6.7894531e+01   4.1412109e+01   6.6117188e+01
   6.7716797e+01   4.1589844e+01   6.6117188e+01
   6.7539062e+01   4.2300781e+01   6.5939453e+01
   6.7539062e+01   4.2478516e+01   6.5761719e+01
   6.7539062e+01   4.2300781e+01   6.5583984e+01
   6.7539062e+01   4.2123047e+01   6.5761719e+01
   6.7183594e+01   4.2656250e+01   6.5583984e+01
   6.7361328e+01   4.2656250e+01   6.5761719e+01
   6.7183594e+01   4.2656250e+01   6.5939453e+01
   6.7005859e+01   4.2656250e+01   6.5761719e+01
   6.7183594e+01   4.2478516e+01   6.6117188e+01
   6.7361328e+01   4.2300781e+01   6.6117188e+01
   6.7183594e+01   4.2123047e+01   6.6117188e+01
   6.7005859e+01   4.2300781e+01   6.6117188e+01
   6.8250000e+01   4.2300781e+01   6.5939453e+01
   6.8250000e+01   4.2478516e+01   6.5761719e+01
   6.8250000e+01   4.2300781e+01   6.5583984e+01
   6.8250000e+01   4.2123047e+01   6.5761719e+01
   6.7894531e+01   4.2656250e+01   6.5583984e+01
   6.8072266e+01   4.2656250e+01   6.5761719e+01
   6.7894531e+01   4.2656250e+01   6.5939453e+01
   6.7716797e+01   4.2656250e+01   6.5761719e+01
   6.7894531e+01   4.2478516e+01   6.6117188e+01
   6.8072266e+01   4.2300781e+01   6.6117188e+01
   6.7894531e+01   4.2123047e+01   6.6117188e+01
   6.7716797e+01   4.2300781e+01   6.6117188e+01
   6.7539062e+01   4.1589844e+01   6.6650391e+01
   6.7539062e+01   4.1767578e+01   6.6472656e+01
   6.7539062e+01   4.1589844e+01   6.6294922e+01
   6.7539062e+01   4.1412109e+01   6.6472656e+01
   6.7183594e+01   4.1945312e+01   6.6294922e+01
   6.7361328e+01   4.1945312e+01   6.6472656e+01
   6.7183594e+01   4.1945312e+01   6.6650391e+01
   6.7005859e+01   4.1945312e+01   6.6472656e+01
   6.7183594e+01   4.1767578e+01   6.6828125e+01
   6.7361328e+01   4.1589844e+01   6.6828125e+01
   6.7183594e+01   4.1412109e+01   6.6828125e+01
   6.7005859e+01   4.1589844e+01   6.6828125e+01
   6.8250000e+01   4.1589844e+01   6.6650391e+01
   6.8250000e+01   4.1767578e+01   6.6472656e+01
   6.8250000e+01   4.1589844e+01   6.6294922e+01
   6.8250000e+01   4.1412109e+01   6.6472656e+01
   6.7894531e+01   4.1945312e+01   6.6294922e+01
   6.8072266e+01   4.1945312e+01   6.6472656e+01
   6.7894531e+01   4.1945312e+01   6.6650391e+01
   6.7716797e+01   4.1945312e+01   6.6472656e+01
   6.7894531e+01   4.1767578e+01   6.6828125e+01
   6.8072266e+01   4.1589844e+01   6.6828125e+01
   6.7894531e+01   4.1412109e+01   6.6828125e+01
   6.7716797e+01   4.1589844e+01   6.6828125e+01
   6.7539062e+01   4.2300781e+01   6.6650391e+01
   6.7539062e+01   4.2478516e+01   6.6472656e+01
   6.7539062e+01   4.2300781e+01   6.6294922e+01
   6.7539062e+01   4.2123047e+01   6.6472656e+01
   6.7183594e+01   4.2656250e+01   6.6294922e+01
   6.7361328e+01   4.2656250e+01   6.6472656e+01
   6.7183594e+01   4.2656250e+01   6.6650391e+01
   6.7005859e+01   4.2656250e+01   6.6472656e+01
   6.7183594e+01   4.2478516e+01   6.6828125e+01
   6.7361328e+01   4.2300781e+01   6.6828125e+01
   6.7183594e+01   4.2123047e+01   6.6828125e+01
   6.7005859e+01   4.2300781e+01   6.6828125e+01
   6.8250000e+01   4.2300781e+01   6.6650391e+01
   6.8250000e+01   4.2478516e+01   6.6472656e+01
   6.8250000e+01   4.2300781e+01   6.6294922e+01
   6.8250000e+01   4.2123047e+01   6.6472656e+01
   6.7894531e+01   4.2656250e+01   6.6294922e+01
   6.8072266e+01   4.2656250e+01   6.6472656e+01
   6.7894531e+01   4.2656250e+01   6.6650391e+01
   6.7716797e+01   4.2656250e+01   6.6472656e+01
   6.7894531e+01   4.2478516e+01   6.6828125e+01
   6.8072266e+01   4.2300781e+01   6.6828125e+01
   6.7894531e+01   4.2123047e+01   6.6828125e+01
   6.7716797e+01   4.2300781e+01   6.6828125e+01
   6.6117188e+01   4.0878906e+01   6.7361328e+01
   6.6117188e+01   4.1056641e+01   6.7183594e+01
   6.5761719e+01   4.1234375e+01   6.7005859e+01
   6.5939453e+01   4.1234375e+01   6.7183594e+01
   6.5761719e+01   4.1234375e+01   6.7361328e+01
   6.5583984e+01   4.1234375e+01   6.7183594e+01
   6.5761719e+01   4.1056641e+01   6.7539062e+01
   6.5939453e+01   4.0878906e+01   6.7539062e+01
   6.5583984e+01   4.0878906e+01   6.7539062e+01
   6.6828125e+01   4.0878906e+01   6.7361328e+01
   6.6828125e+01   4.1056641e+01   6.7183594e+01
   6.6828125e+01   4.0878906e+01   6.7005859e+01
   6.6472656e+01   4.1234375e+01   6.7005859e+01
   6.6650391e+01   4.1234375e+01   6.7183594e+01
   6.6472656e+01   4.1234375e+01   6.7361328e+01
   6.6294922e+01   4.1234375e+01   6.7183594e+01
   6.6472656e+01   4.1056641e+01   6.7539062e+01
   6.6650391e+01   4.0878906e+01   6.7539062e+01
   6.6472656e+01   4.0701172e+01   6.7539062e+01
   6.6294922e+01   4.0878906e+01   6.7539062e+01
   6.5761719e+01   4.0523438e+01   6.8072266e+01
   6.6650391e+01   4.0523438e+01   6.7894531e+01
   6.6472656e+01   4.0523438e+01   6.8072266e+01
   6.6294922e+01   4.0523438e+01   6.7894531e+01
   6.6472656e+01   4.0345703e+01   6.8250000e+01
   6.6117188e+01   4.0878906e+01   6.8072266e+01
   6.6117188e+01   4.1056641e+01   6.7894531e+01
   6.6117188e+01   4.0878906e+01   6.7716797e+01
   6.6117188e+01   4.0701172e+01   6.7894531e+01
   6.5761719e+01   4.1234375e+01   6.7716797e+01
   6.5939453e+01   4.1234375e+01   6.7894531e+01
   6.5761719e+01   4.1234375e+01   6.8072266e+01
   6.5583984e+01   4.1234375e+01   6.7894531e+01
   6.5761719e+01   4.1056641e+01   6.8250000e+01
   6.5939453e+01   4.0878906e+01   6.8250000e+01
   6.5761719e+01   4.0701172e+01   6.8250000e+01
   6.5583984e+01   4.0878906e+01   6.8250000e+01
   6.6828125e+01   4.0878906e+01   6.8072266e+01
   6.6828125e+01   4.1056641e+01   6.7894531e+01
   6.6828125e+01   4.0878906e+01   6.7716797e+01
   6.6828125e+01   4.0701172e+01   6.7894531e+01
   6.6472656e+01   4.1234375e+01   6.7716797e+01
   6.6650391e+01   4.1234375e+01   6.7894531e+01
   6.6472656e+01   4.1234375e+01   6.8072266e+01
   6.6294922e+01   4.1234375e+01   6.7894531e+01
   6.6472656e+01   4.1056641e+01   6.8250000e+01
   6.6650391e+01   4.0878906e+01   6.8250000e+01
   6.6472656e+01   4.0701172e+01   6.8250000e+01
   6.6294922e+01   4.0878906e+01   6.8250000e+01
   6.7539062e+01   4.0878906e+01   6.7361328e+01
   6.7539062e+01   4.1056641e+01   6.7183594e+01
   6.7539062e+01   4.0878906e+01   6.7005859e+01
   6.7539062e+01   4.0701172e+01   6.7183594e+01
   6.7183594e+01   4.1234375e+01   6.7005859e+01
   6.7361328e+01   4.1234375e+01   6.7183594e+01
   6.7183594e+01   4.1234375e+01   6.7361328e+01
   6.7005859e+01   4.1234375e+01   6.7183594e+01
   6.7183594e+01   4.1056641e+01   6.7539062e+01
   6.7361328e+01   4.0878906e+01   6.7539062e+01
   6.7183594e+01   4.0701172e+01   6.7539062e+01
   6.7005859e+01   4.0878906e+01   6.7539062e+01
   6.8166428e+01   4.0913310e+01   6.7326926e+01
   6.8268477e+01   4.0988993e+01   6.7251240e+01
   6.8284133e+01   4.0955479e+01   6.7039992e+01
   6.8216486e+01   4.0667658e+01   6.7061213e+01
   6.7894531e+01   4.1234375e+01   6.7005859e+01
   6.8072266e+01   4.1234375e+01   6.7183594e+01
   6.7894531e+01   4.1234375e+01   6.7361328e+01
   6.7716797e+01   4.1234375e+01   6.7183594e+01
   6.7873311e+01   4.1077860e+01   6.7646406e+01
   6.8037863e+01   4.0913310e+01   6.7455490e+01
   6.7683283e+01   4.0845393e+01   6.7634113e+01
   6.7183594e+01   4.0523438e+01   6.7716797e+01
   6.7005859e+01   4.0523438e+01   6.7894531e+01
   6.7701760e+01   4.0955479e+01   6.7750930e+01
   6.7183594e+01   4.1234375e+01   6.7716797e+01
   6.7361328e+01   4.1234375e+01   6.7894531e+01
   6.7183594e+01   4.1234375e+01   6.8072266e+01
   6.7005859e+01   4.1234375e+01   6.7894531e+01
   6.7162373e+01   4.1077860e+01   6.8228779e+01
   6.6972346e+01   4.0845393e+01   6.8216486e+01
   6.6117188e+01   4.1589844e+01   6.7361328e+01
   6.6117188e+01   4.1767578e+01   6.7183594e+01
   6.6117188e+01   4.1589844e+01   6.7005859e+01
   6.6117188e+01   4.1412109e+01   6.7183594e+01
   6.5761719e+01   4.1945312e+01   6.7005859e+01
   6.5939453e+01   4.1945312e+01   6.7183594e+01
   6.5761719e+01   4.1945312e+01   6.7361328e+01
   6.5583984e+01   4.1945312e+01   6.7183594e+01
   6.5761719e+01   4.1767578e+01   6.7539062e+01
   6.5939453e+01   4.1589844e+01   6.7539062e+01
   6.5761719e+01   4.1412109e+01   6.7539062e+01
   6.5583984e+01   4.1589844e+01   6.7539062e+01
   6.6828125e+01   4.1589844e+01   6.7361328e+01
   6.6828125e+01   4.1767578e+01   6.7183594e+01
   6.6828125e+01   4.1589844e+01   6.7005859e+01
   6.6828125e+01   4.1412109e+01   6.7183594e+01
   6.6472656e+01   4.1945312e+01   6.7005859e+01
   6.6650391e+01   4.1945312e+01   6.7183594e+01
   6.6472656e+01   4.1945312e+01   6.7361328e+01
   6.6294922e+01   4.1945312e+01   6.7183594e+01
   6.6472656e+01   4.1767578e+01   6.7539062e+01
   6.6650391e+01   4.1589844e+01   6.7539062e+01
   6.6472656e+01   4.1412109e+01   6.7539062e+01
   6.6294922e+01   4.1589844e+01   6.7539062e+01
   6.6117188e+01   4.2300781e+01   6.7361328e+01
   6.6117188e+01   4.2478516e+01   6.7183594e+01
   6.6117188e+01   4.2300781e+01   6.7005859e+01
   6.6117188e+01   4.2123047e+01   6.7183594e+01
   6.5761719e+01   4.2656250e+01   6.7005859e+01
   6.5939453e+01   4.2656250e+01   6.7183594e+01
   6.5761719e+01   4.2656250e+01   6.7361328e+01
   6.5583984e+01   4.2656250e+01   6.7183594e+01
   6.5761719e+01   4.2478516e+01   6.7539062e+01
   6.5939453e+01   4.2300781e+01   6.7539062e+01
   6.5761719e+01   4.2123047e+01   6.7539062e+01
   6.5583984e+01   4.2300781e+01   6.7539062e+01
   6.6828125e+01   4.2300781e+01   6.7361328e+01
   6.6828125e+01   4.2478516e+01   6.7183594e+01
   6.6828125e+01   4.2300781e+01   6.7005859e+01
   6.6828125e+01   4.2123047e+01   6.7183594e+01
   6.6472656e+01   4.2656250e+01   6.7005859e+01
   6.6650391e+01   4.2656250e+01   6.7183594e+01
   6.6472656e+01   4.2656250e+01   6.7361328e+01
   6.6294922e+01   4.2656250e+01   6.7183594e+01
   6.6472656e+01   4.2478516e+01   6.7539062e+01
   6.6650391e+01   4.2300781e+01   6.7539062e+01
   6.6472656e+01   4.2123047e+01   6.7539062e+01
   6.6294922e+01   4.2300781e+01   6.7539062e+01
   6.6117188e+01   4.1589844e+01   6.8072266e+01
   6.6117188e+01   4.1767578e+01   6.7894531e+01
   6.6117188e+01   4.1589844e+01   6.7716797e+01
   6.6117188e+01   4.1412109e+01   6.7894531e+01
   6.5761719e+01   4.1945312e+01   6.7716797e+01
   6.5939453e+01   4.1945312e+01   6.7894531e+01
   6.5761719e+01   4.1945312e+01   6.8072266e+01
   6.5583984e+01   4.1945312e+01   6.7894531e+01
   6.5761719e+01   4.1767578e+01   6.8250000e+01
   6.5939453e+01   4.1589844e+01   6.8250000e+01
   6.5761719e+01   4.1412109e+01   6.8250000e+01
   6.5583984e+01   4.1589844e+01   6.8250000e+01
   6.6828125e+01   4.1589844e+01   6.8072266e+01
   6.6828125e+01   4.1767578e+01   6.7894531e+01
   6.6828125e+01   4.1589844e+01   6.7716797e+01
   6.6828125e+01   4.1412109e+01   6.7894531e+01
   6.6472656e+01   4.1945312e+01   6.7716797e+01
   6.6650391e+01   4.1945312e+01   6.7894531e+01
   6.6472656e+01   4.1945312e+01   6.8072266e+01
   6.6294922e+01   4.1945312e+01   6.7894531e+01
   6.6472656e+01   4.1767578e+01   6.8250000e+01
   6.6650391e+01   4.1589844e+01   6.8250000e+01
   6.6472656e+01   4.1412109e+01   6.8250000e+01
   6.6294922e+01   4.1589844e+01   6.8250000e+01
   6.6117188e+01   4.2300781e+01   6.8072266e+01
   6.6117188e+01   4.2478516e+01   6.7894531e+01
   6.6117188e+01   4.2300781e+01   6.7716797e+01
   6.6117188e+01   4.2123047e+01   6.7894531e+01
   6.5761719e+01   4.2656250e+01   6.7716797e+01
   6.5939453e+01   4.2656250e+01   6.7894531e+01
   6.5761719e+01   4.2656250e+01   6.8072266e+01
   6.5583984e+01   4.2656250e+01   6.7894531e+01
   6.5761719e+01   4.2478516e+01   6.8250000e+01
   6.5939453e+01   4.2300781e+01   6.8250000e+01
   6.5761719e+01   4.2123047e+01   6.8250000e+01
   6.5583984e+01   4.2300781e+01   6.8250000e+01
   6.6828125e+01   4.2300781e+01   6.8072266e+01
   6.6828125e+01   4.2478516e+01   6.7894531e+01
   6.6828125e+01   4.2300781e+01   6.7716797e+01
   6.6828125e+01   4.2123047e+01   6.7894531e+01
   6.6472656e+01   4.2656250e+01   6.7716797e+01
   6.6650391e+01   4.2656250e+01   6.7894531e+01
   6.6472656e+01   4.2656250e+01   6.8072266e+01
   6.6294922e+01   4.2656250e+01   6.7894531e+01
   6.6472656e+01   4.2478516e+01   6.8250000e+01
   6.6650391e+01   4.2300781e+01   6.8250000e+01
   6.6472656e+01   4.2123047e+01   6.8250000e+01
   6.6294922e+01   4.2300781e+01   6.8250000e+01
   6.7539062e+01   4.1589844e+01   6.7361328e+01
   6.7539062e+01   4.1767578e+01   6.7183594e+01
   6.7539062e+01   4.1589844e+01   6.7005859e+01
   6.7539062e+01   4.1412109e+01   6.7183594e+01
   6.7183594e+01   4.1945312e+01   6.7005859e+01
   6.7361328e+01   4.1945312e+01   6.7183594e+01
   6.7183594e+01   4.1945312e+01   6.7361328e+01
   6.7005859e+01   4.1945312e+01   6.7183594e+01
   6.7183594e+01   4.1767578e+01   6.7539062e+01
   6.7361328e+01   4.1589844e+01   6.7539062e+01
   6.7183594e+01   4.1412109e+01   6.7539062e+01
   6.7005859e+01   4.1589844e+01   6.7539062e+01
   6.8250000e+01   4.1589844e+01   6.7361328e+01
   6.8250000e+01   4.1767578e+01   6.7183594e+01
   6.8250000e+01   4.1589844e+01   6.7005859e+01
   6.8250000e+01   4.1412109e+01   6.7183594e+01
   6.7894531e+01   4.1945312e+01   6.7005859e+01
   6.8072266e+01   4.1945312e+01   6.7183594e+01
   6.7894531e+01   4.1945312e+01   6.7361328e+01
   6.7716797e+01   4.1945312e+01   6.7183594e+01
   6.7894531e+01   4.1767578e+01   6.7539062e+01
   6.8072266e+01   4.1589844e+01   6.7539062e+01
   6.7894531e+01   4.1412109e+01   6.7539062e+01
   6.7716797e+01   4.1589844e+01   6.7539062e+01
   6.7539062e+01   4.2300781e+01   6.7361328e+01
   6.7539062e+01   4.2478516e+01   6.7183594e+01
   6.7539062e+01   4.2300781e+01   6.7005859e+01
   6.7539062e+01   4.2123047e+01   6.7183594e+01
   6.7183594e+01   4.2656250e+01   6.7005859e+01
   6.7361328e+01   4.2656250e+01   6.7183594e+01
   6.7183594e+01   4.2656250e+01   6.7361328e+01
   6.7005859e+01   4.2656250e+01   6.7183594e+01
   6.7183594e+01   4.2478516e+01   6.7539062e+01
   6.7361328e+01   4.2300781e+01   6.7539062e+01
   6.7183594e+01   4.2123047e+01   6.7539062e+01
   6.7005859e+01   4.2300781e+01   6.7539062e+01
   6.8250000e+01   4.2300781e+01   6.7361328e+01
   6.8250000e+01   4.2478516e+01   6.7183594e+01
   6.8250000e+01   4.2300781e+01   6.7005859e+01
   6.8250000e+01   4.2123047e+01   6.7183594e+01
   6.7894531e+01   4.2656250e+01   6.7005859e+01
   6.8072266e+01   4.2656250e+01   6.7183594e+01
   6.7894531e+01   4.2656250e+01   6.7361328e+01
   6.7716797e+01   4.2656250e+01   6.7183594e+01
   6.7894531e+01   4.2478516e+01   6.7539062e+01
   6.8072266e+01   4.2300781e+01   6.7539062e+01
   6.7894531e+01   4.2123047e+01   6.7539062e+01
   6.7716797e+01   4.2300781e+01   6.7539062e+01
   6.7539062e+01   4.1589844e+01   6.8072266e+01
   6.7539062e+01   4.1767578e+01   6.7894531e+01
   6.7539062e+01   4.1589844e+01   6.7716797e+01
   6.7539062e+01   4.1412109e+01   6.7894531e+01
   6.7183594e+01   4.1945312e+01   6.7716797e+01
   6.7361328e+01   4.1945312e+01   6.7894531e+01
   6.7183594e+01   4.1945312e+01   6.8072266e+01
   6.7005859e+01   4.1945312e+01   6.7894531e+01
   6.7183594e+01   4.1767578e+01   6.8250000e+01
   6.7361328e+01   4.1589844e+01   6.8250000e+01
   6.7183594e+01   4.1412109e+01   6.8250000e+01
   6.7005859e+01   4.1589844e+01   6.8250000e+01
   6.8230170e+01   4.1856677e+01   6.7788203e+01
   6.8244705e+01   4.1644308e+01   6.7662332e+01
   6.7894531e+01   4.1945312e+01   6.7716797e+01
   6.7716797e+01   4.1945312e+01   6.7894531e+01
   6.7539062e+01   4.2300781e+01   6.8072266e+01
   6.7539062e+01   4.2478516e+01   6.7894531e+01
   6.7539062e+01   4.2300781e+01   6.7716797e+01
   6.7539062e+01   4.2123047e+01   6.7894531e+01
   6.7183594e+01   4.2656250e+01   6.7716797e+01
   6.7361328e+01   4.2656250e+01   6.7894531e+01
   6.7183594e+01   4.2656250e+01   6.8072266e+01
   6.7005859e+01   4.2656250e+01   6.7894531e+01
   6.7183594e+01   4.2478516e+01   6.8250000e+01
   6.7361328e+01   4.2300781e+01   6.8250000e+01
   6.7183594e+01   4.2123047e+01   6.8250000e+01
   6.7005859e+01   4.2300781e+01   6.8250000e+01
   6.8167545e+01   4.2334066e+01   6.8038980e+01
   6.8268477e+01   4.2410868e+01   6.7962178e+01
   6.8284133e+01   4.2377354e+01   6.7750930e+01
   6.8216486e+01   4.2089533e+01   6.7774520e+01
   6.7894531e+01   4.2656250e+01   6.7716797e+01
   6.8072266e+01   4.2656250e+01   6.7894531e+01
   6.7894531e+01   4.2656250e+01   6.8072266e+01
   6.7716797e+01   4.2656250e+01   6.7894531e+01
   6.7873311e+01   4.2499735e+01   6.8357344e+01
   6.8038980e+01   4.2334066e+01   6.8167545e+01
   6.7691613e+01   4.2275599e+01   6.8353381e+01
   6.4073242e+01   4.3100586e+01   6.5672852e+01
   6.4073242e+01   4.2922852e+01   6.5850586e+01
   6.4695312e+01   4.3011719e+01   6.5939453e+01
   6.4695312e+01   4.3189453e+01   6.5761719e+01
   6.4695312e+01   4.3011719e+01   6.5583984e+01
   6.4695312e+01   4.2833984e+01   6.5761719e+01
   6.4339844e+01   4.3367188e+01   6.5583984e+01
   6.4517578e+01   4.3367188e+01   6.5761719e+01
   6.4339844e+01   4.3367188e+01   6.5939453e+01
   6.4162109e+01   4.3367188e+01   6.5761719e+01
   6.4428711e+01   4.2922852e+01   6.5495117e+01
   6.4250977e+01   4.3100586e+01   6.5495117e+01
   6.4339844e+01   4.3189453e+01   6.6117188e+01
   6.4517578e+01   4.3011719e+01   6.6117188e+01
   6.4339844e+01   4.2833984e+01   6.6117188e+01
   6.4162109e+01   4.3011719e+01   6.6117188e+01
   6.5406250e+01   4.3011719e+01   6.5939453e+01
   6.5406250e+01   4.3189453e+01   6.5761719e+01
   6.5406250e+01   4.3011719e+01   6.5583984e+01
   6.5406250e+01   4.2833984e+01   6.5761719e+01
   6.5050781e+01   4.3367188e+01   6.5583984e+01
   6.5228516e+01   4.3367188e+01   6.5761719e+01
   6.5050781e+01   4.3367188e+01   6.5939453e+01
   6.4873047e+01   4.3367188e+01   6.5761719e+01
   6.5139648e+01   4.3100586e+01   6.5495117e+01
   6.4961914e+01   4.2922852e+01   6.5495117e+01
   6.5050781e+01   4.3189453e+01   6.6117188e+01
   6.5228516e+01   4.3011719e+01   6.6117188e+01
   6.5050781e+01   4.2833984e+01   6.6117188e+01
   6.4873047e+01   4.3011719e+01   6.6117188e+01
   6.4073242e+01   4.3811523e+01   6.5850586e+01
   6.4073242e+01   4.3633789e+01   6.5672852e+01
   6.4695312e+01   4.3722656e+01   6.5939453e+01
   6.4695312e+01   4.3900391e+01   6.5761719e+01
   6.4695312e+01   4.3722656e+01   6.5583984e+01
   6.4695312e+01   4.3544922e+01   6.5761719e+01
   6.4428711e+01   4.3989258e+01   6.5672852e+01
   6.4250977e+01   4.3989258e+01   6.5850586e+01
   6.4428711e+01   4.3811523e+01   6.5495117e+01
   6.4250977e+01   4.3633789e+01   6.5495117e+01
   6.4339844e+01   4.3900391e+01   6.6117188e+01
   6.4517578e+01   4.3722656e+01   6.6117188e+01
   6.4339844e+01   4.3544922e+01   6.6117188e+01
   6.4162109e+01   4.3722656e+01   6.6117188e+01
   6.5406250e+01   4.3722656e+01   6.5939453e+01
   6.5406250e+01   4.3900391e+01   6.5761719e+01
   6.5406250e+01   4.3722656e+01   6.5583984e+01
   6.5406250e+01   4.3544922e+01   6.5761719e+01
   6.5139648e+01   4.3989258e+01   6.5850586e+01
   6.4961914e+01   4.3989258e+01   6.5672852e+01
   6.5139648e+01   4.3633789e+01   6.5495117e+01
   6.4961914e+01   4.3811523e+01   6.5495117e+01
   6.5050781e+01   4.3900391e+01   6.6117188e+01
   6.5228516e+01   4.3722656e+01   6.6117188e+01
   6.5050781e+01   4.3544922e+01   6.6117188e+01
   6.4873047e+01   4.3722656e+01   6.6117188e+01
   6.4073242e+01   4.3100586e+01   6.6561523e+01
   6.4073242e+01   4.2922852e+01   6.6383789e+01
   6.4695312e+01   4.3011719e+01   6.6650391e+01
   6.4695312e+01   4.3189453e+01   6.6472656e+01
   6.4695312e+01   4.3011719e+01   6.6294922e+01
   6.4695312e+01   4.2833984e+01   6.6472656e+01
   6.4339844e+01   4.3367188e+01   6.6294922e+01
   6.4517578e+01   4.3367188e+01   6.6472656e+01
   6.4339844e+01   4.3367188e+01   6.6650391e+01
   6.4162109e+01   4.3367188e+01   6.6472656e+01
   6.4339844e+01   4.3189453e+01   6.6828125e+01
