   7.2121422e+01   4.4638015e+01   6.4777092e+01
   7.1924588e+01   4.4628905e+01   6.5042714e+01
   7.1638631e+01   4.4785419e+01   6.5063935e+01
   7.1460896e+01   4.4785419e+01   6.5241669e+01
   7.1460896e+01   4.4607685e+01   6.5419403e+01
   7.1605861e+01   4.4462720e+01   6.5386633e+01
   7.1816365e+01   4.5140888e+01   6.5241669e+01
   7.1816365e+01   4.4963153e+01   6.5063935e+01
   7.1449219e+01   4.5322266e+01   6.5406250e+01
   7.1638631e+01   4.5140888e+01   6.5419403e+01
   7.1460896e+01   4.4963153e+01   6.5419403e+01
   7.2260533e+01   4.5157945e+01   6.5106638e+01
   7.2328180e+01   4.5268033e+01   6.5065819e+01
   7.2431506e+01   4.5216604e+01   6.4800976e+01
   7.2297252e+01   4.5039909e+01   6.4977670e+01
   7.2091717e+01   4.5392009e+01   6.5405776e+01
   7.2216012e+01   4.5157945e+01   6.5173666e+01
   7.2104187e+01   4.5030800e+01   6.5241051e+01
   7.1994100e+01   4.5140888e+01   6.5308697e+01
   7.2572521e+01   4.5512374e+01   6.4821479e+01
   6.8960938e+01   4.4433594e+01   6.6650391e+01
   6.8783203e+01   4.4433594e+01   6.6828125e+01
   6.8605469e+01   4.4255859e+01   6.6828125e+01
   6.9671875e+01   4.4433594e+01   6.6650391e+01
   6.9671875e+01   4.4611328e+01   6.6472656e+01
   6.9671875e+01   4.4433594e+01   6.6294922e+01
   6.9494141e+01   4.4789062e+01   6.6472656e+01
   6.9316406e+01   4.4789062e+01   6.6650391e+01
   6.9316406e+01   4.4611328e+01   6.6828125e+01
   6.9494141e+01   4.4433594e+01   6.6828125e+01
   6.9316406e+01   4.4255859e+01   6.6828125e+01
   6.9138672e+01   4.4433594e+01   6.6828125e+01
   6.9671875e+01   4.5144531e+01   6.6650391e+01
   6.9671875e+01   4.4966797e+01   6.6472656e+01
   6.9316406e+01   4.5322266e+01   6.6828125e+01
   6.9494141e+01   4.5144531e+01   6.6828125e+01
   6.9316406e+01   4.4966797e+01   6.6828125e+01
   6.9138672e+01   4.5144531e+01   6.6828125e+01
   7.0382812e+01   4.4433594e+01   6.5939453e+01
   7.0027344e+01   4.4611328e+01   6.6117188e+01
   7.0205078e+01   4.4433594e+01   6.6117188e+01
   6.9849609e+01   4.4433594e+01   6.6117188e+01
   7.1093750e+01   4.4611328e+01   6.5761719e+01
   7.1093750e+01   4.4433594e+01   6.5583984e+01
   7.0916016e+01   4.4789062e+01   6.5761719e+01
   7.0738281e+01   4.4789062e+01   6.5939453e+01
   7.0560547e+01   4.4789062e+01   6.5761719e+01
   7.0738281e+01   4.4611328e+01   6.6117188e+01
   7.0983662e+01   4.4454814e+01   6.6184834e+01
   7.0560547e+01   4.4433594e+01   6.6117188e+01
   7.0205078e+01   4.5144531e+01   6.6117188e+01
   7.1093750e+01   4.5144531e+01   6.5939453e+01
   7.1093750e+01   4.5322266e+01   6.5761719e+01
   7.1093750e+01   4.5144531e+01   6.5583984e+01
   7.1093750e+01   4.4966797e+01   6.5761719e+01
   7.0738281e+01   4.5500000e+01   6.5939453e+01
   7.0738281e+01   4.5322266e+01   6.6117188e+01
   7.0916016e+01   4.5144531e+01   6.6117188e+01
   7.0738281e+01   4.4966797e+01   6.6117188e+01
   7.0560547e+01   4.5144531e+01   6.6117188e+01
   7.0370686e+01   4.4437236e+01   6.6637238e+01
   7.0382812e+01   4.4611328e+01   6.6472656e+01
   7.0382812e+01   4.4433594e+01   6.6294922e+01
   7.0370686e+01   4.4259502e+01   6.6459504e+01
   7.0027344e+01   4.4789062e+01   6.6294922e+01
   7.0205078e+01   4.4789062e+01   6.6472656e+01
   7.0027344e+01   4.4789062e+01   6.6650391e+01
   6.9849609e+01   4.4789062e+01   6.6472656e+01
   7.0040004e+01   4.4612162e+01   6.6840449e+01
   7.0205611e+01   4.4438070e+01   6.6827297e+01
   7.0027877e+01   4.4260336e+01   6.6827297e+01
   6.9862270e+01   4.4434428e+01   6.6840449e+01
   7.1026104e+01   4.4678976e+01   6.6276445e+01
   7.1026104e+01   4.4590108e+01   6.6227275e+01
   7.0738281e+01   4.4789062e+01   6.6294922e+01
   7.0560547e+01   4.4789062e+01   6.6472656e+01
   7.0382812e+01   4.5144531e+01   6.6650391e+01
   7.0382812e+01   4.5322266e+01   6.6472656e+01
   7.0382812e+01   4.5144531e+01   6.6294922e+01
   7.0382812e+01   4.4966797e+01   6.6472656e+01
   7.0205078e+01   4.5500000e+01   6.6472656e+01
   7.0027344e+01   4.5500000e+01   6.6650391e+01
   6.9849609e+01   4.5500000e+01   6.6472656e+01
   7.0027344e+01   4.5322266e+01   6.6828125e+01
   7.0205078e+01   4.5144531e+01   6.6828125e+01
   7.0027344e+01   4.4966797e+01   6.6828125e+01
   6.9849609e+01   4.5144531e+01   6.6828125e+01
   7.0916904e+01   4.5165482e+01   6.6562412e+01
   7.0971369e+01   4.5288752e+01   6.6567707e+01
   7.1092861e+01   4.5212448e+01   6.6294033e+01
   7.1038396e+01   4.4911443e+01   6.6288738e+01
   7.0738281e+01   4.5500000e+01   6.6294922e+01
   7.0560547e+01   4.5500000e+01   6.6472656e+01
   7.0710062e+01   4.5412022e+01   6.6849076e+01
   7.0828037e+01   4.5165482e+01   6.6651279e+01
   7.0505193e+01   4.5089178e+01   6.6861639e+01
   6.8605469e+01   4.4078125e+01   6.7361328e+01
   6.8960938e+01   4.4433594e+01   6.7361328e+01
   6.8960938e+01   4.4611328e+01   6.7183594e+01
   6.8960938e+01   4.4433594e+01   6.7005859e+01
   6.8960938e+01   4.4255859e+01   6.7183594e+01
   6.8605469e+01   4.4789062e+01   6.7005859e+01
   6.8783203e+01   4.4789062e+01   6.7183594e+01
   6.8605469e+01   4.4789062e+01   6.7361328e+01
   6.8427734e+01   4.4789062e+01   6.7183594e+01
   6.8605469e+01   4.4611328e+01   6.7539062e+01
   6.8783203e+01   4.4433594e+01   6.7539062e+01
   6.8605469e+01   4.4255859e+01   6.7539062e+01
   6.9684535e+01   4.4612162e+01   6.7195918e+01
   6.9684535e+01   4.4434428e+01   6.7018184e+01
   6.9316406e+01   4.4789062e+01   6.7005859e+01
   6.9494141e+01   4.4789062e+01   6.7183594e+01
   6.9316406e+01   4.4789062e+01   6.7361328e+01
   6.9138672e+01   4.4789062e+01   6.7183594e+01
   6.8960938e+01   4.5144531e+01   6.7361328e+01
   6.8960938e+01   4.5322266e+01   6.7183594e+01
   6.8960938e+01   4.5144531e+01   6.7005859e+01
   6.8960938e+01   4.4966797e+01   6.7183594e+01
   6.8783203e+01   4.5500000e+01   6.7183594e+01
   6.8605469e+01   4.5500000e+01   6.7361328e+01
   6.8605469e+01   4.5322266e+01   6.7539062e+01
   6.8783203e+01   4.5144531e+01   6.7539062e+01
   6.8605469e+01   4.4966797e+01   6.7539062e+01
   6.8427734e+01   4.5144531e+01   6.7539062e+01
   6.9671875e+01   4.5144531e+01   6.7361328e+01
   6.9671875e+01   4.5322266e+01   6.7183594e+01
   6.9671875e+01   4.5144531e+01   6.7005859e+01
   6.9671875e+01   4.4966797e+01   6.7183594e+01
   6.9316406e+01   4.5500000e+01   6.7005859e+01
   6.9494141e+01   4.5500000e+01   6.7183594e+01
   6.9316406e+01   4.5500000e+01   6.7361328e+01
   6.9138672e+01   4.5500000e+01   6.7183594e+01
   6.9316406e+01   4.5322266e+01   6.7539062e+01
   6.9494141e+01   4.5144531e+01   6.7539062e+01
   6.9316406e+01   4.4966797e+01   6.7539062e+01
   6.9138672e+01   4.5144531e+01   6.7539062e+01
   6.8605469e+01   4.4789062e+01   6.7716797e+01
   6.8960938e+01   4.5322266e+01   6.7894531e+01
   6.8960938e+01   4.5144531e+01   6.7716797e+01
   6.8605469e+01   4.5500000e+01   6.7716797e+01
   6.8783203e+01   4.5500000e+01   6.7894531e+01
   6.9316406e+01   4.5500000e+01   6.7716797e+01
   6.9138672e+01   4.5500000e+01   6.7894531e+01
   7.0040004e+01   4.4789896e+01   6.7018184e+01
   6.9862270e+01   4.4789896e+01   6.7195918e+01
   7.0381924e+01   4.5212448e+01   6.7004971e+01
   7.0027344e+01   4.5500000e+01   6.7005859e+01
   6.9849609e+01   4.5500000e+01   6.7183594e+01
   7.0654709e+01   4.5534403e+01   6.6971457e+01
   7.1460896e+01   4.4785419e+01   6.5597138e+01
   7.1271484e+01   4.4789062e+01   6.5761719e+01
   7.1253008e+01   4.4678976e+01   6.6049541e+01
   7.1203838e+01   4.4590108e+01   6.6049541e+01
   7.1627842e+01   4.5165482e+01   6.5851475e+01
   7.1736064e+01   4.5234993e+01   6.5781963e+01
   7.1781256e+01   4.5175996e+01   6.5562028e+01
   7.1673033e+01   4.5017618e+01   6.5720407e+01
   7.1449219e+01   4.5500000e+01   6.5583984e+01
   7.1271484e+01   4.5500000e+01   6.5761719e+01
   7.1365646e+01   4.5356669e+01   6.6171652e+01
   7.1538975e+01   4.5165482e+01   6.5940342e+01
   7.1216131e+01   4.5089178e+01   6.6150701e+01
   7.2044658e+01   4.5534174e+01   6.5535141e+01
   7.1934889e+01   4.5534174e+01   6.5662510e+01
   7.1197654e+01   4.4801356e+01   6.6171922e+01
   7.1148484e+01   4.4801356e+01   6.6221092e+01
   7.1365646e+01   4.5534403e+01   6.6260520e+01
   7.1237082e+01   4.5534403e+01   6.6389084e+01
   7.2401812e+01   4.5888517e+01   6.5180999e+01
   7.2461393e+01   4.5623502e+01   6.4888085e+01
   7.2135867e+01   4.6031334e+01   6.5378982e+01
   7.2279619e+01   4.5887582e+01   6.5344999e+01
   7.2223520e+01   4.5710782e+01   6.5358532e+01
   7.1969998e+01   4.5854534e+01   6.5392516e+01
   7.2491996e+01   4.6564638e+01   6.5201935e+01
   7.2326025e+01   4.6565472e+01   6.5392717e+01
   7.2148291e+01   4.6387737e+01   6.5392717e+01
   7.2636445e+01   4.6242454e+01   6.4990915e+01
   7.2659512e+01   4.6809913e+01   6.5326596e+01
   7.2603125e+01   4.6631244e+01   6.5313063e+01
   6.9494141e+01   4.5855469e+01   6.6828125e+01
   7.1093750e+01   4.5855469e+01   6.5939453e+01
   7.1093750e+01   4.5677734e+01   6.5761719e+01
   7.0738281e+01   4.6033203e+01   6.6117188e+01
   7.0916016e+01   4.5855469e+01   6.6117188e+01
   7.0738281e+01   4.5677734e+01   6.6117188e+01
   7.0382812e+01   4.5855469e+01   6.6650391e+01
   7.0382812e+01   4.6033203e+01   6.6472656e+01
   7.0382812e+01   4.5855469e+01   6.6294922e+01
   7.0382812e+01   4.5677734e+01   6.6472656e+01
   7.0027344e+01   4.6210938e+01   6.6650391e+01
   7.0027344e+01   4.6033203e+01   6.6828125e+01
   7.0205078e+01   4.5855469e+01   6.6828125e+01
   7.0027344e+01   4.5677734e+01   6.6828125e+01
   6.9849609e+01   4.5855469e+01   6.6828125e+01
   7.1161396e+01   4.5876689e+01   6.6718037e+01
   7.1093750e+01   4.6033203e+01   6.6472656e+01
   7.1093750e+01   4.5855469e+01   6.6294922e+01
   7.1093750e+01   4.5677734e+01   6.6423486e+01
   7.0738281e+01   4.6210938e+01   6.6294922e+01
   7.0916016e+01   4.6210938e+01   6.6472656e+01
   7.0738281e+01   4.6210938e+01   6.6650391e+01
   7.0560547e+01   4.6210938e+01   6.6472656e+01
   7.0738281e+01   4.6033203e+01   6.6828125e+01
   7.0983662e+01   4.5876689e+01   6.6895771e+01
   7.0845625e+01   4.5698955e+01   6.6806904e+01
   7.0560547e+01   4.5855469e+01   6.6828125e+01
   7.0382812e+01   4.6566406e+01   6.6650391e+01
   7.0382812e+01   4.6388672e+01   6.6472656e+01
   7.0027344e+01   4.6744141e+01   6.6828125e+01
   7.0205078e+01   4.6566406e+01   6.6828125e+01
   7.0027344e+01   4.6388672e+01   6.6828125e+01
   7.1093750e+01   4.6566406e+01   6.6650391e+01
   7.1093750e+01   4.6744141e+01   6.6472656e+01
   7.1093750e+01   4.6566406e+01   6.6294922e+01
   7.1093750e+01   4.6388672e+01   6.6472656e+01
   7.0916016e+01   4.6921875e+01   6.6472656e+01
   7.0738281e+01   4.6921875e+01   6.6650391e+01
   7.0738281e+01   4.6744141e+01   6.6828125e+01
   7.0916016e+01   4.6566406e+01   6.6828125e+01
   7.0738281e+01   4.6388672e+01   6.6828125e+01
   7.0560547e+01   4.6566406e+01   6.6828125e+01
   7.1093750e+01   4.7277344e+01   6.6650391e+01
   7.1093750e+01   4.7455078e+01   6.6472656e+01
   7.1093750e+01   4.7099609e+01   6.6472656e+01
   7.0738281e+01   4.7455078e+01   6.6828125e+01
   7.0916016e+01   4.7277344e+01   6.6828125e+01
   7.0738281e+01   4.7099609e+01   6.6828125e+01
   7.0560547e+01   4.7277344e+01   6.6828125e+01
   7.1093750e+01   4.7988281e+01   6.6650391e+01
   7.0916016e+01   4.7988281e+01   6.6828125e+01
   7.0738281e+01   4.7810547e+01   6.6828125e+01
   6.8960938e+01   4.5855469e+01   6.7361328e+01
   6.8960938e+01   4.5677734e+01   6.7183594e+01
   6.8605469e+01   4.6033203e+01   6.7539062e+01
   6.8783203e+01   4.5855469e+01   6.7539062e+01
   6.8605469e+01   4.5677734e+01   6.7539062e+01
   6.8427734e+01   4.5855469e+01   6.7539062e+01
   6.9671875e+01   4.5855469e+01   6.7361328e+01
   6.9671875e+01   4.6033203e+01   6.7183594e+01
   6.9671875e+01   4.5855469e+01   6.7005859e+01
   6.9671875e+01   4.5677734e+01   6.7183594e+01
   6.9494141e+01   4.6210938e+01   6.7183594e+01
   6.9316406e+01   4.6210938e+01   6.7361328e+01
   6.9138672e+01   4.6210938e+01   6.7183594e+01
   6.9316406e+01   4.6033203e+01   6.7539062e+01
   6.9494141e+01   4.5855469e+01   6.7539062e+01
   6.9316406e+01   4.5677734e+01   6.7539062e+01
   6.9138672e+01   4.5855469e+01   6.7539062e+01
   6.8783203e+01   4.6566406e+01   6.7539062e+01
   6.9671875e+01   4.6566406e+01   6.7361328e+01
   6.9671875e+01   4.6744141e+01   6.7183594e+01
   6.9671875e+01   4.6566406e+01   6.7005859e+01
   6.9671875e+01   4.6388672e+01   6.7183594e+01
   6.9316406e+01   4.6921875e+01   6.7361328e+01
   6.9316406e+01   4.6744141e+01   6.7539062e+01
   6.9494141e+01   4.6566406e+01   6.7539062e+01
   6.9316406e+01   4.6388672e+01   6.7539062e+01
   6.9138672e+01   4.6566406e+01   6.7539062e+01
   6.8960938e+01   4.5855469e+01   6.8072266e+01
   6.8960938e+01   4.6033203e+01   6.7894531e+01
   6.8960938e+01   4.5855469e+01   6.7716797e+01
   6.8960938e+01   4.5677734e+01   6.7894531e+01
   6.8605469e+01   4.6210938e+01   6.7716797e+01
   6.8783203e+01   4.6210938e+01   6.7894531e+01
   6.8783203e+01   4.5855469e+01   6.8250000e+01
   6.9316406e+01   4.6210938e+01   6.7716797e+01
   6.9494141e+01   4.6210938e+01   6.7894531e+01
   6.9316406e+01   4.6210938e+01   6.8072266e+01
   6.9138672e+01   4.6210938e+01   6.7894531e+01
   6.8960938e+01   4.6566406e+01   6.8072266e+01
   6.8960938e+01   4.6744141e+01   6.7894531e+01
   6.8960938e+01   4.6566406e+01   6.7716797e+01
   6.8960938e+01   4.6388672e+01   6.7894531e+01
   6.8783203e+01   4.6921875e+01   6.7894531e+01
   6.8605469e+01   4.6921875e+01   6.8072266e+01
   6.8783203e+01   4.6566406e+01   6.8250000e+01
   6.9671875e+01   4.6744141e+01   6.7894531e+01
   6.9671875e+01   4.6566406e+01   6.7716797e+01
   6.9671875e+01   4.6388672e+01   6.7894531e+01
   6.9316406e+01   4.6921875e+01   6.7716797e+01
   6.9494141e+01   4.6921875e+01   6.7894531e+01
   6.9316406e+01   4.6921875e+01   6.8072266e+01
   6.9138672e+01   4.6921875e+01   6.7894531e+01
   6.9316406e+01   4.6744141e+01   6.8250000e+01
   6.9138672e+01   4.6566406e+01   6.8250000e+01
   7.0395596e+01   4.6034037e+01   6.7195918e+01
   7.0382812e+01   4.5855469e+01   6.7005859e+01
   7.0382812e+01   4.5677734e+01   6.7134424e+01
   7.0027344e+01   4.6210938e+01   6.7005859e+01
   7.0217861e+01   4.6211771e+01   6.7195918e+01
   7.0040127e+01   4.6211771e+01   6.7373652e+01
   6.9849609e+01   4.6210938e+01   6.7183594e+01
   6.9825023e+01   4.5830884e+01   6.7514477e+01
   7.0738281e+01   4.6210938e+01   6.7005859e+01
   7.0573330e+01   4.6211771e+01   6.7195918e+01
   7.0395596e+01   4.6567240e+01   6.7373652e+01
   7.0382812e+01   4.6744141e+01   6.7183594e+01
   7.0382812e+01   4.6566406e+01   6.7005859e+01
   7.0395596e+01   4.6389506e+01   6.7195918e+01
   7.0027344e+01   4.6921875e+01   6.7005859e+01
   7.0205078e+01   4.6921875e+01   6.7183594e+01
   7.0027344e+01   4.6921875e+01   6.7361328e+01
   6.9849609e+01   4.6921875e+01   6.7183594e+01
   7.0027344e+01   4.6744141e+01   6.7539062e+01
   7.0217861e+01   4.6567240e+01   6.7551387e+01
   7.0040127e+01   4.6389506e+01   6.7551387e+01
   6.9849609e+01   4.6566406e+01   6.7539062e+01
   7.0843600e+01   4.6577285e+01   6.7239742e+01
   7.0909832e+01   4.6688787e+01   6.7217107e+01
   7.1063871e+01   4.6645456e+01   6.6975980e+01
   7.1029469e+01   4.6324390e+01   6.6986848e+01
   7.0738281e+01   4.6921875e+01   6.7005859e+01
   7.0560547e+01   4.6921875e+01   6.7183594e+01
   7.0794430e+01   4.6577285e+01   6.7288912e+01
   7.0573330e+01   4.6567240e+01   6.7422822e+01
   7.0027344e+01   4.6921875e+01   6.7716797e+01
   6.9849609e+01   4.6921875e+01   6.7894531e+01
   6.9671875e+01   4.7277344e+01   6.7361328e+01
   6.9671875e+01   4.7099609e+01   6.7183594e+01
   6.9494141e+01   4.7277344e+01   6.7539062e+01
   6.9316406e+01   4.7099609e+01   6.7539062e+01
   6.8960938e+01   4.7277344e+01   6.8072266e+01
   6.8960938e+01   4.7455078e+01   6.7894531e+01
   6.8960938e+01   4.7277344e+01   6.7716797e+01
   6.8960938e+01   4.7099609e+01   6.7894531e+01
   6.8605469e+01   4.7632812e+01   6.8072266e+01
   6.8783203e+01   4.7277344e+01   6.8250000e+01
   6.9671875e+01   4.7277344e+01   6.8072266e+01
   6.9671875e+01   4.7455078e+01   6.7894531e+01
   6.9671875e+01   4.7277344e+01   6.7716797e+01
   6.9671875e+01   4.7099609e+01   6.7894531e+01
   6.9316406e+01   4.7632812e+01   6.7716797e+01
   6.9494141e+01   4.7632812e+01   6.7894531e+01
   6.9316406e+01   4.7632812e+01   6.8072266e+01
   6.9138672e+01   4.7632812e+01   6.7894531e+01
   6.9316406e+01   4.7455078e+01   6.8250000e+01
   6.9494141e+01   4.7277344e+01   6.8250000e+01
   6.9316406e+01   4.7099609e+01   6.8250000e+01
   6.9138672e+01   4.7277344e+01   6.8250000e+01
   6.8960938e+01   4.7988281e+01   6.8072266e+01
   6.8783203e+01   4.7988281e+01   6.8250000e+01
   6.8605469e+01   4.7810547e+01   6.8250000e+01
   6.9671875e+01   4.7988281e+01   6.8072266e+01
   6.9671875e+01   4.8166016e+01   6.7894531e+01
   6.9671875e+01   4.7988281e+01   6.7716797e+01
   6.9671875e+01   4.7810547e+01   6.7894531e+01
   6.9494141e+01   4.8343750e+01   6.7894531e+01
   6.9316406e+01   4.8343750e+01   6.8072266e+01
   6.9316406e+01   4.8166016e+01   6.8250000e+01
   6.9494141e+01   4.7988281e+01   6.8250000e+01
   6.9316406e+01   4.7810547e+01   6.8250000e+01
   6.9138672e+01   4.7988281e+01   6.8250000e+01
   7.0382812e+01   4.7277344e+01   6.7361328e+01
   7.0382812e+01   4.7455078e+01   6.7183594e+01
   7.0382812e+01   4.7277344e+01   6.7005859e+01
   7.0382812e+01   4.7099609e+01   6.7183594e+01
   7.0205078e+01   4.7632812e+01   6.7183594e+01
   7.0027344e+01   4.7632812e+01   6.7361328e+01
   7.0027344e+01   4.7455078e+01   6.7539062e+01
   7.0205078e+01   4.7277344e+01   6.7539062e+01
   7.0027344e+01   4.7099609e+01   6.7539062e+01
   6.9849609e+01   4.7277344e+01   6.7539062e+01
   7.0985592e+01   4.7287161e+01   6.7302340e+01
   7.1019994e+01   4.7430493e+01   6.7291473e+01
   7.1126469e+01   4.7355332e+01   6.7038578e+01
   7.1060236e+01   4.7066096e+01   6.7061213e+01
   7.0738281e+01   4.7632812e+01   6.7005859e+01
   7.0560547e+01   4.7632812e+01   6.7183594e+01
   7.0670377e+01   4.7477713e+01   6.7644992e+01
   7.0857027e+01   4.7287161e+01   6.7430904e+01
   7.0525912e+01   4.7242709e+01   6.7632992e+01
   7.0382812e+01   4.7988281e+01   6.7361328e+01
   7.0382812e+01   4.8166016e+01   6.7183594e+01
   7.0382812e+01   4.7810547e+01   6.7183594e+01
   7.0027344e+01   4.8166016e+01   6.7539062e+01
   7.0205078e+01   4.7988281e+01   6.7539062e+01
   7.0027344e+01   4.7810547e+01   6.7539062e+01
   6.9849609e+01   4.7988281e+01   6.7539062e+01
   7.1025846e+01   4.8010916e+01   6.7338693e+01
   7.1115088e+01   4.8099409e+01   6.7250201e+01
   7.1137723e+01   4.8076774e+01   6.7049832e+01
   7.1071115e+01   4.7787912e+01   6.7115689e+01
   7.0738281e+01   4.8343750e+01   6.7005859e+01
   7.0916016e+01   4.8343750e+01   6.7183594e+01
   7.0738281e+01   4.8343750e+01   6.7361328e+01
   7.0560547e+01   4.8343750e+01   6.7183594e+01
   7.0717061e+01   4.8187235e+01   6.7650307e+01
   7.0893381e+01   4.8010916e+01   6.7471158e+01
   7.0736609e+01   4.7721680e+01   6.7582660e+01
   7.0537912e+01   4.7965646e+01   6.7648893e+01
   7.0525117e+01   4.7354211e+01   6.7748395e+01
   7.0348178e+01   4.7064975e+01   6.7750127e+01
   7.0027344e+01   4.7632812e+01   6.7716797e+01
   7.0237797e+01   4.7710801e+01   6.7927250e+01
   6.9849609e+01   4.7632812e+01   6.7894531e+01
   7.0647742e+01   4.7632812e+01   6.7671527e+01
   7.0302449e+01   4.8010407e+01   6.8037631e+01
   7.0560289e+01   4.8075733e+01   6.7761809e+01
   7.0492643e+01   4.7787912e+01   6.7826627e+01
   7.0027344e+01   4.8343750e+01   6.7716797e+01
   7.0192619e+01   4.8343241e+01   6.7882531e+01
   7.0014885e+01   4.8343241e+01   6.8060266e+01
   6.9849609e+01   4.8343750e+01   6.7894531e+01
   6.9992250e+01   4.8188142e+01   6.8215365e+01
   7.0169984e+01   4.8010407e+01   6.8170096e+01
   7.0133273e+01   4.7833182e+01   6.8182096e+01
   6.9825023e+01   4.7963696e+01   6.8225414e+01
   7.1859910e+01   4.5875755e+01   6.5993365e+01
   7.1792264e+01   4.6032269e+01   6.5747984e+01
   7.1792264e+01   4.5854534e+01   6.5570250e+01
   7.1792264e+01   4.5676800e+01   6.5697619e+01
   7.1626953e+01   4.6210938e+01   6.5761719e+01
   7.1449219e+01   4.6210938e+01   6.5939453e+01
   7.1449219e+01   4.6033203e+01   6.6117188e+01
   7.1694600e+01   4.5876689e+01   6.6184834e+01
   7.1556562e+01   4.5698955e+01   6.6095967e+01
   7.1271484e+01   4.5855469e+01   6.6117188e+01
   7.2135867e+01   4.6209068e+01   6.5556717e+01
   7.1969998e+01   4.6210003e+01   6.5747984e+01
   7.1946873e+01   4.6099916e+01   6.6035807e+01
   7.1902352e+01   4.6011049e+01   6.6035807e+01
   7.1804688e+01   4.6566406e+01   6.5939453e+01
   7.1804688e+01   4.6744141e+01   6.5761719e+01
   7.1804688e+01   4.6388672e+01   6.5761719e+01
   7.1449219e+01   4.6744141e+01   6.6117188e+01
   7.1626953e+01   4.6566406e+01   6.6117188e+01
   7.1449219e+01   4.6388672e+01   6.6117188e+01
   7.1271484e+01   4.6566406e+01   6.6117188e+01
   7.2252121e+01   4.6569328e+01   6.5809162e+01
   7.2340990e+01   4.6658195e+01   6.5720296e+01
   7.2437154e+01   4.6632078e+01   6.5503845e+01
   7.2303939e+01   4.6454344e+01   6.5681578e+01
   7.2160156e+01   4.6921875e+01   6.5583984e+01
   7.1982422e+01   4.6921875e+01   6.5761719e+01
   7.2019988e+01   4.6824905e+01   6.6086789e+01
   7.2207600e+01   4.6569328e+01   6.5858332e+01
   7.1984922e+01   4.6302129e+01   6.6075166e+01
   7.1918141e+01   4.6502124e+01   6.6102076e+01
   7.1737041e+01   4.6011983e+01   6.6227275e+01
   7.1449219e+01   4.6210938e+01   6.6294922e+01
   7.1560721e+01   4.6277170e+01   6.6406424e+01
   7.1271484e+01   4.6210938e+01   6.6472656e+01
   7.1249107e+01   4.6100851e+01   6.6760479e+01
   7.1203838e+01   4.6011983e+01   6.6760479e+01
   7.1895016e+01   4.6214303e+01   6.6162994e+01
   7.1554537e+01   4.6577285e+01   6.6528805e+01
   7.1822861e+01   4.6646573e+01   6.6263926e+01
   7.1789576e+01   4.6324390e+01   6.6275910e+01
   7.1449219e+01   4.6921875e+01   6.6294922e+01
   7.1626064e+01   4.6989791e+01   6.6471768e+01
   7.1271484e+01   4.6921875e+01   6.6472656e+01
   7.1305887e+01   4.6798605e+01   6.6773660e+01
   7.1505367e+01   4.6577285e+01   6.6577975e+01
   7.1407572e+01   4.6479489e+01   6.6657914e+01
   7.1207203e+01   4.6502124e+01   6.6763844e+01
   7.1960170e+01   4.6942822e+01   6.6204705e+01
   7.1892205e+01   4.6942822e+01   6.6291203e+01
   7.2607592e+01   4.6924797e+01   6.5453693e+01
   7.1804688e+01   4.7277344e+01   6.5939453e+01
   7.1626953e+01   4.7277344e+01   6.6117188e+01
   7.1449219e+01   4.7099609e+01   6.6117188e+01
   7.2316336e+01   4.7297594e+01   6.5849934e+01
   7.2405203e+01   4.7386461e+01   6.5761066e+01
   7.2485924e+01   4.7357411e+01   6.5554282e+01
   7.2451941e+01   4.7035925e+01   6.5570665e+01
   7.2092252e+01   4.7477713e+01   6.6203018e+01
   7.2248371e+01   4.7297594e+01   6.5958398e+01
   7.2049734e+01   4.7030992e+01   6.6116535e+01
   7.1947787e+01   4.7242709e+01   6.6191018e+01
   7.2425086e+01   4.7988281e+01   6.5894184e+01
   7.2513150e+01   4.8077952e+01   6.5804514e+01
   7.2158484e+01   4.8254883e+01   6.6160785e+01
   7.2292621e+01   4.7988281e+01   6.6026648e+01
   7.2158484e+01   4.7721680e+01   6.6160785e+01
   7.1959787e+01   4.7965646e+01   6.6227018e+01
   7.1696529e+01   4.7287161e+01   6.6591402e+01
   7.1964850e+01   4.7354211e+01   6.6326520e+01
   7.1824518e+01   4.7010510e+01   6.6401250e+01
   7.1449219e+01   4.7632812e+01   6.6294922e+01
   7.1668600e+01   4.7719729e+01   6.6514303e+01
   7.1271484e+01   4.7632812e+01   6.6472656e+01
   7.1381314e+01   4.7477713e+01   6.6805490e+01
   7.1567965e+01   4.7287161e+01   6.6719967e+01
   7.1470170e+01   4.7189365e+01   6.6799906e+01
   7.1237971e+01   4.7243830e+01   6.6794611e+01
   7.2069617e+01   4.7632812e+01   6.6249652e+01
   7.1714148e+01   4.7988281e+01   6.6605121e+01
   7.1980750e+01   4.8077148e+01   6.6338520e+01
   7.1914518e+01   4.7787912e+01   6.6404752e+01
   7.1382438e+01   4.8188276e+01   6.6805865e+01
   7.1581684e+01   4.7988281e+01   6.6737586e+01
   7.1492816e+01   4.7899414e+01   6.6826453e+01
   7.1248850e+01   4.7965646e+01   6.6805490e+01
   7.2069617e+01   4.8343750e+01   6.6249652e+01
   7.1937152e+01   4.8343750e+01   6.6382117e+01
   7.1184826e+01   4.6214303e+01   6.6873932e+01
   7.1139557e+01   4.6214303e+01   6.6919201e+01
   7.1272373e+01   4.6942826e+01   6.6917881e+01
   7.1183506e+01   4.6942826e+01   6.7006748e+01
   7.1358680e+01   4.7632812e+01   6.6960590e+01
   7.1226215e+01   4.7632812e+01   6.7093055e+01
   6.9671875e+01   4.8699219e+01   6.8072266e+01
   6.9671875e+01   4.8876953e+01   6.7894531e+01
   6.9671875e+01   4.8521484e+01   6.7894531e+01
   6.9316406e+01   4.8876953e+01   6.8250000e+01
   6.9494141e+01   4.8699219e+01   6.8250000e+01
   6.9316406e+01   4.8521484e+01   6.8250000e+01
   6.9138672e+01   4.8699219e+01   6.8250000e+01
   7.0382812e+01   4.8699219e+01   6.7361328e+01
   7.0205078e+01   4.8699219e+01   6.7539062e+01
   7.0027344e+01   4.8521484e+01   6.7539062e+01
   7.1105189e+01   4.8699729e+01   6.7373787e+01
   7.1105189e+01   4.8877463e+01   6.7196053e+01
   7.1105189e+01   4.8699729e+01   6.7018318e+01
   7.1105189e+01   4.8521994e+01   6.7196053e+01
   7.0916016e+01   4.9054688e+01   6.7183594e+01
   7.0738281e+01   4.9054688e+01   6.7361328e+01
   7.0738281e+01   4.8876953e+01   6.7539062e+01
   7.0916016e+01   4.8699219e+01   6.7539062e+01
   7.0738281e+01   4.8521484e+01   6.7539062e+01
   7.0560547e+01   4.8699219e+01   6.7539062e+01
   7.0370354e+01   4.8698710e+01   6.8060266e+01
   7.0382812e+01   4.8876953e+01   6.7894531e+01
   7.0382812e+01   4.8699219e+01   6.7716797e+01
   7.0370354e+01   4.8520976e+01   6.7882531e+01
   7.0027344e+01   4.9054688e+01   6.7716797e+01
   6.9849609e+01   4.9054688e+01   6.7894531e+01
   7.0027344e+01   4.8876953e+01   6.8250000e+01
   7.0192619e+01   4.8698710e+01   6.8238000e+01
   7.0014885e+01   4.8520976e+01   6.8238000e+01
   6.9849609e+01   4.8699219e+01   6.8250000e+01
   7.0827406e+01   4.8700634e+01   6.7938387e+01
   7.1072787e+01   4.8765451e+01   6.7650564e+01
   7.0893639e+01   4.8589132e+01   6.7826885e+01
   7.0782137e+01   4.8700634e+01   6.7982908e+01
   7.0658176e+01   4.8588623e+01   6.8037141e+01
   7.0481480e+01   4.8765316e+01   6.8215916e+01
   7.2158484e+01   4.8432617e+01   6.6160785e+01
   7.1749014e+01   4.8721989e+01   6.6640588e+01
   7.1926748e+01   4.8899724e+01   6.6462855e+01
   7.1782053e+01   4.8498850e+01   6.6404752e+01
   7.1471766e+01   4.8877973e+01   6.6853043e+01
   7.1627240e+01   4.8722499e+01   6.6830781e+01
   7.1282924e+01   4.8699729e+01   6.6840584e+01
   7.1471766e+01   4.9055707e+01   6.7030777e+01
   7.1583268e+01   4.9121939e+01   6.7142279e+01
   7.1282924e+01   4.9055197e+01   6.7196053e+01
   7.1261961e+01   4.8943695e+01   6.7485289e+01
   7.1216691e+01   4.8765961e+01   6.7485289e+01
   6.8960938e+01   4.6566406e+01   6.8427734e+01
   6.8960938e+01   4.7455078e+01   6.8605469e+01
   6.8960938e+01   4.7277344e+01   6.8427734e+01
   6.8960938e+01   4.7099609e+01   6.8605469e+01
   6.9316406e+01   4.7632812e+01   6.8427734e+01
   6.9138672e+01   4.7632812e+01   6.8605469e+01
   6.8960938e+01   4.7988281e+01   6.8783203e+01
   6.8960938e+01   4.8166016e+01   6.8605469e+01
   6.8960938e+01   4.7988281e+01   6.8427734e+01
   6.8960938e+01   4.7810547e+01   6.8605469e+01
   6.8783203e+01   4.8343750e+01   6.8605469e+01
   6.9713521e+01   4.8075198e+01   6.8469381e+01
   6.9316406e+01   4.8343750e+01   6.8427734e+01
   6.9138672e+01   4.8343750e+01   6.8605469e+01
   6.9992250e+01   4.8365876e+01   6.8393100e+01
   6.8960938e+01   4.8699219e+01   6.8783203e+01
   6.8960938e+01   4.8876953e+01   6.8605469e+01
   6.8960938e+01   4.8699219e+01   6.8427734e+01
   6.8960938e+01   4.8521484e+01   6.8605469e+01
   6.9671875e+01   4.8699219e+01   6.8427734e+01
   6.9671875e+01   4.8521484e+01   6.8560199e+01
   6.9138672e+01   4.8699219e+01   6.8960938e+01
   7.0303746e+01   4.8765316e+01   6.8349129e+01
   7.1768074e+01   4.4607685e+01   6.5063935e+01
   7.2210289e+01   4.4815749e+01   6.4935229e+01
   7.2121422e+01   4.4815749e+01   6.4846361e+01
   7.2252730e+01   4.4951042e+01   6.4977670e+01
   7.2104187e+01   4.4941933e+01   6.5174022e+01
   7.1972879e+01   4.4806640e+01   6.5042714e+01
   7.2061746e+01   4.4806640e+01   6.5131581e+01
   7.2404674e+01   4.5300005e+01   6.4964577e+01
   7.2449020e+01   4.5388872e+01   6.4875710e+01
   7.2387160e+01   4.5127736e+01   6.4889843e+01
   7.2338543e+01   4.5568617e+01   6.5120703e+01
   7.2283658e+01   4.5445768e+01   6.5065819e+01
   7.2337891e+01   4.5500000e+01   6.4942316e+01
   7.2126826e+01   4.5534635e+01   6.5263151e+01
   7.2105924e+01   4.5445768e+01   6.5174284e+01
   7.2270578e+01   4.5568617e+01   6.5229168e+01
   7.2070814e+01   4.5303142e+01   6.5383938e+01
   7.2105924e+01   4.5268033e+01   6.5241313e+01
   7.1958990e+01   4.5175996e+01   6.5451322e+01
   7.1161396e+01   4.4454814e+01   6.6007100e+01
   7.1072529e+01   4.4454814e+01   6.5918232e+01
   7.0894795e+01   4.4454814e+01   6.6095967e+01
   7.0861551e+01   4.4843527e+01   6.6467361e+01
   7.0916016e+01   4.4789062e+01   6.6344092e+01
   7.0644119e+01   4.4754660e+01   6.6684793e+01
   7.0683816e+01   4.4843527e+01   6.6595926e+01
   7.1059348e+01   4.5267802e+01   6.6477951e+01
   7.1059348e+01   4.5356669e+01   6.6389084e+01
   7.1038396e+01   4.5089178e+01   6.6239568e+01
   7.1092861e+01   4.5123581e+01   6.6382900e+01
   7.1038396e+01   4.5000311e+01   6.6377605e+01
   7.0950418e+01   4.5021262e+01   6.6467361e+01
   7.0950148e+01   4.5576574e+01   6.6635354e+01
   7.0882502e+01   4.5466486e+01   6.6567707e+01
   7.0916016e+01   4.5500000e+01   6.6423486e+01
   7.0744465e+01   4.5555354e+01   6.6705744e+01
   7.0704768e+01   4.5466486e+01   6.6616877e+01
   7.0900979e+01   4.5576574e+01   6.6684523e+01
   7.0670365e+01   4.5323155e+01   6.6849076e+01
   7.0704768e+01   4.5288752e+01   6.6705744e+01
   7.0683816e+01   4.5021262e+01   6.6684793e+01
   7.0560547e+01   4.5144531e+01   6.6739258e+01
   7.0559658e+01   4.5212448e+01   6.6916104e+01
   6.9494141e+01   4.4078125e+01   6.7139072e+01
   7.0348410e+01   4.5356669e+01   6.7100021e+01
   7.0327459e+01   4.5089178e+01   6.6950506e+01
   7.0205078e+01   4.5500000e+01   6.7134424e+01
   6.9993830e+01   4.5466486e+01   6.7327814e+01
   7.1584166e+01   4.4839884e+01   6.5720407e+01
   7.1355057e+01   4.4754660e+01   6.5973855e+01
   7.1394754e+01   4.4843527e+01   6.5884988e+01
   7.1736064e+01   4.5323860e+01   6.5820465e+01
   7.1769578e+01   4.5357374e+01   6.5676244e+01
   7.1781256e+01   4.5087129e+01   6.5650896e+01
   7.1661086e+01   4.5576574e+01   6.5923221e+01
   7.1593439e+01   4.5466486e+01   6.5855574e+01
   7.1626953e+01   4.5500000e+01   6.5711354e+01
   7.1455402e+01   4.5555354e+01   6.5994807e+01
   7.1415705e+01   4.5466486e+01   6.5905939e+01
   7.1611916e+01   4.5576574e+01   6.5973586e+01
   7.1455402e+01   4.5377619e+01   6.6083674e+01
   7.1415705e+01   4.5288752e+01   6.5994807e+01
   7.1265301e+01   4.4911443e+01   6.6150701e+01
   7.1355057e+01   4.4932395e+01   6.6062723e+01
   7.1394754e+01   4.5021262e+01   6.5973855e+01
   7.1271484e+01   4.5144531e+01   6.6028320e+01
   7.1270596e+01   4.5212448e+01   6.6205166e+01
   7.2580244e+01   4.6065554e+01   6.5003963e+01
   7.2435795e+01   4.6032269e+01   6.5037248e+01
   7.2482295e+01   4.5712369e+01   6.4976952e+01
   7.2413678e+01   4.5711717e+01   6.5086067e+01
   7.2079768e+01   4.5676800e+01   6.5392516e+01
   7.2674197e+01   4.7035925e+01   6.5342565e+01
   7.2663658e+01   4.7357411e+01   6.5426913e+01
   7.1072529e+01   4.5876689e+01   6.6629170e+01
   7.1072529e+01   4.5698955e+01   6.6580000e+01
   7.0894795e+01   4.5876689e+01   6.6806904e+01
   7.0689111e+01   4.5677734e+01   6.6828125e+01
   6.9647289e+01   4.5830884e+01   6.7692211e+01
   7.0040127e+01   4.6034037e+01   6.7506865e+01
   6.9913891e+01   4.5919751e+01   6.7558822e+01
   7.0916016e+01   4.6210938e+01   6.7051129e+01
   7.0999588e+01   4.6709738e+01   6.7129129e+01
   7.1039285e+01   4.6798605e+01   6.7040262e+01
   7.1029469e+01   4.6502124e+01   6.6941578e+01
   7.1024174e+01   4.6556589e+01   6.7064848e+01
   7.0989771e+01   4.6413257e+01   6.7075715e+01
   7.0898953e+01   4.6454904e+01   6.7162631e+01
   7.0915127e+01   4.6989791e+01   6.7271572e+01
   7.0860662e+01   4.6866521e+01   6.7217107e+01
   7.0916016e+01   4.6921875e+01   6.7094727e+01
   7.0735023e+01   4.6900924e+01   6.7449307e+01
   7.0737393e+01   4.6989791e+01   6.7360439e+01
   7.0682928e+01   4.6866521e+01   6.7305975e+01
   7.0682928e+01   4.6688787e+01   6.7355145e+01
   7.1110812e+01   4.7388846e+01   6.7204557e+01
   7.1071115e+01   4.7477713e+01   6.7115689e+01
   7.1060236e+01   4.7243830e+01   6.6972346e+01
   7.1166166e+01   4.7266465e+01   6.7127445e+01
   7.1099934e+01   4.7154963e+01   6.7150080e+01
   7.1010178e+01   4.7134012e+01   6.7238059e+01
   7.0957662e+01   4.7719729e+01   6.7357705e+01
   7.0891430e+01   4.7608228e+01   6.7291473e+01
   7.0916016e+01   4.7632812e+01   6.7138324e+01
   7.0823525e+01   4.7630862e+01   6.7491842e+01
   7.0779928e+01   4.7719729e+01   6.7402975e+01
   7.0713695e+01   4.7608228e+01   6.7336742e+01
   7.0757293e+01   4.7519360e+01   6.7554174e+01
   7.0713695e+01   4.7430493e+01   6.7465307e+01
   7.0703879e+01   4.7134012e+01   6.7455490e+01
   7.0560547e+01   4.7277344e+01   6.7489893e+01
   7.0592145e+01   4.7354211e+01   6.7699225e+01
   7.1071490e+01   4.8188276e+01   6.7161334e+01
   7.1071115e+01   4.7965646e+01   6.6983225e+01
   7.1181320e+01   4.7987907e+01   6.7138699e+01
   7.1114713e+01   4.7876779e+01   6.7204557e+01
   7.1025846e+01   4.7833182e+01   6.7293424e+01
   7.0738281e+01   4.8166016e+01   6.7493793e+01
   7.0693012e+01   4.7810547e+01   6.7626258e+01
   7.0715646e+01   4.7833182e+01   6.7471158e+01
   7.0560547e+01   4.7988281e+01   6.7493793e+01
   7.0605559e+01   4.8075733e+01   6.7716539e+01
   7.0470885e+01   4.7477713e+01   6.7826627e+01
   7.0371139e+01   4.7510432e+01   6.7904615e+01
   7.0282271e+01   4.7421564e+01   6.7861018e+01
   7.0370018e+01   4.7331576e+01   6.7771029e+01
   7.0348178e+01   4.7242709e+01   6.7682162e+01
   7.0171564e+01   4.7599299e+01   6.7861018e+01
   7.0326664e+01   4.7621934e+01   6.7970848e+01
   7.0033527e+01   4.7688166e+01   6.8127619e+01
   6.9993830e+01   4.7599299e+01   6.8038752e+01
   7.0188627e+01   4.7710801e+01   6.8104984e+01
   6.9993830e+01   4.7421564e+01   6.8127619e+01
   7.0515277e+01   4.7632812e+01   6.7803992e+01
   7.0481598e+01   4.8186727e+01   6.7861311e+01
   7.0325084e+01   4.8165507e+01   6.7882531e+01
   7.0492643e+01   4.7965646e+01   6.7694162e+01
   7.0337543e+01   4.7988281e+01   6.7716797e+01
   7.0403775e+01   4.7744314e+01   6.7915494e+01
   7.0314908e+01   4.7833182e+01   6.7871896e+01
   7.0081117e+01   4.8099274e+01   6.8258963e+01
   7.0042455e+01   4.7874829e+01   6.8269012e+01
   6.9953588e+01   4.7785962e+01   6.8225414e+01
   6.9980123e+01   4.7986331e+01   6.8335244e+01
   6.9891256e+01   4.8075198e+01   6.8291646e+01
   7.0717061e+01   4.8364970e+01   6.7695576e+01
   7.0805928e+01   4.8364970e+01   6.7784443e+01
   7.0848369e+01   4.8500265e+01   6.7826885e+01
   7.0658176e+01   4.8499756e+01   6.7992619e+01
   7.0526867e+01   4.8364461e+01   6.7861311e+01
   7.0615734e+01   4.8364461e+01   6.7950178e+01
   7.1771043e+01   4.5875755e+01   6.5904498e+01
   7.1771043e+01   4.5698021e+01   6.5854133e+01
   7.1605732e+01   4.5876689e+01   6.6095967e+01
   7.1400049e+01   4.5677734e+01   6.6117188e+01
   7.2246994e+01   4.6275675e+01   6.5667844e+01
   7.2036779e+01   4.6187742e+01   6.5947979e+01
   7.2081125e+01   4.6276609e+01   6.5859111e+01
   7.2385336e+01   4.6747062e+01   6.5681794e+01
   7.2449020e+01   4.6810747e+01   6.5567743e+01
   7.2392809e+01   4.6543211e+01   6.5592712e+01
   7.2308189e+01   4.7001942e+01   6.5782383e+01
   7.2274207e+01   4.6858190e+01   6.5748400e+01
   7.2337891e+01   4.6921875e+01   6.5634350e+01
   7.2109553e+01   4.6913075e+01   6.5998619e+01
   7.2130455e+01   4.7001942e+01   6.5909752e+01
   7.2096473e+01   4.6858190e+01   6.5875770e+01
   7.2040891e+01   4.6736038e+01   6.6047092e+01
   7.2096473e+01   4.6680456e+01   6.5924939e+01
   7.2029268e+01   4.6390996e+01   6.6035469e+01
   7.2093549e+01   4.6455278e+01   6.5922016e+01
   7.1982422e+01   4.6566406e+01   6.5988623e+01
   7.1951426e+01   4.6646573e+01   6.6135361e+01
   7.1737041e+01   4.6100851e+01   6.6272545e+01
   7.1649588e+01   4.6188303e+01   6.6362826e+01
   7.1316754e+01   4.6210938e+01   6.6650391e+01
   7.1428256e+01   4.6277170e+01   6.6584158e+01
   7.1850494e+01   4.6214303e+01   6.6208264e+01
   7.1798275e+01   4.6799723e+01   6.6325838e+01
   7.1709637e+01   4.6777654e+01   6.6414934e+01
   7.1620770e+01   4.6688787e+01   6.6417303e+01
   7.1789576e+01   4.6502124e+01   6.6230641e+01
   7.1676123e+01   4.6566406e+01   6.6294922e+01
   7.1698758e+01   4.6366037e+01   6.6362826e+01
   7.1609891e+01   4.6454904e+01   6.6406424e+01
   7.1571600e+01   4.6866521e+01   6.6417303e+01
   7.1714932e+01   4.6900924e+01   6.6469398e+01
   7.1360352e+01   4.6921875e+01   6.6650391e+01
   7.1537197e+01   4.6989791e+01   6.6649502e+01
   7.1482732e+01   4.6866521e+01   6.6595037e+01
   7.1428268e+01   4.6743252e+01   6.6718307e+01
   7.1428268e+01   4.6654385e+01   6.6678609e+01
   7.1363975e+01   4.6390622e+01   6.6697611e+01
   7.1252473e+01   4.6324390e+01   6.6763844e+01
   7.1330473e+01   4.6556589e+01   6.6758549e+01
   7.1241605e+01   4.6645456e+01   6.6798246e+01
   7.2563070e+01   4.6924797e+01   6.5504059e+01
   7.2426105e+01   4.7475328e+01   6.5780664e+01
   7.2460740e+01   4.7509963e+01   6.5637564e+01
   7.2451941e+01   4.7213659e+01   6.5520300e+01
   7.2465021e+01   4.7268544e+01   6.5643149e+01
   7.2397057e+01   4.7090810e+01   6.5693515e+01
   7.2376154e+01   4.7179677e+01   6.5732017e+01
   7.2369488e+01   4.7709680e+01   6.5901781e+01
   7.2303256e+01   4.7598178e+01   6.5835549e+01
   7.2235352e+01   4.7620812e+01   6.6059918e+01
   7.2191754e+01   4.7709680e+01   6.5971051e+01
   7.2125521e+01   4.7598178e+01   6.5904818e+01
   7.2169119e+01   4.7509311e+01   6.6102150e+01
   7.2125521e+01   4.7420443e+01   6.6013283e+01
   7.2070637e+01   4.7119859e+01   6.6136133e+01
   7.2105271e+01   4.7154494e+01   6.5993033e+01
   7.1982422e+01   4.7277344e+01   6.6047918e+01
   7.2014020e+01   4.7354211e+01   6.6257250e+01
   7.2469553e+01   4.8166819e+01   6.5846504e+01
   7.2590018e+01   4.7977085e+01   6.5703646e+01
   7.2458355e+01   4.7798547e+01   6.5812914e+01
   7.2501953e+01   4.7887414e+01   6.5793316e+01
   7.2247352e+01   4.8343750e+01   6.6071918e+01
   7.2114887e+01   4.8166016e+01   6.6204383e+01
   7.2137521e+01   4.8143381e+01   6.6049283e+01
   7.2114887e+01   4.7810547e+01   6.6204383e+01
   7.2137521e+01   4.7833182e+01   6.6049283e+01
   7.1982422e+01   4.7988281e+01   6.6071918e+01
   7.2026020e+01   4.8077148e+01   6.6293250e+01
   7.1910617e+01   4.7477713e+01   6.6404752e+01
   7.1819799e+01   4.7519360e+01   6.6491668e+01
   7.1730932e+01   4.7430493e+01   6.6448070e+01
   7.1898617e+01   4.7242709e+01   6.6260287e+01
   7.1755518e+01   4.7277344e+01   6.6294922e+01
   7.1864215e+01   4.7099377e+01   6.6403619e+01
   7.1721115e+01   4.7134012e+01   6.6438254e+01
   7.1602367e+01   4.7608228e+01   6.6448070e+01
   7.1757467e+01   4.7630862e+01   6.6557900e+01
   7.1403949e+01   4.7632812e+01   6.6650391e+01
   7.1623330e+01   4.7719729e+01   6.6692037e+01
   7.1557098e+01   4.7608228e+01   6.6625805e+01
   7.1534463e+01   4.7453128e+01   6.6780904e+01
   7.1490865e+01   4.7364261e+01   6.6820602e+01
   7.1470170e+01   4.7100498e+01   6.6760209e+01
   7.1326838e+01   4.7066096e+01   6.6794611e+01
   7.1393070e+01   4.7266465e+01   6.6900541e+01
   7.1304203e+01   4.7355332e+01   6.6860844e+01
   7.1937152e+01   4.7632812e+01   6.6382117e+01
   7.1914518e+01   4.8188650e+01   6.6404752e+01
   7.1825650e+01   4.8232248e+01   6.6493619e+01
   7.1736783e+01   4.8143381e+01   6.6450021e+01
   7.1914518e+01   4.7965646e+01   6.6272287e+01
   7.1759418e+01   4.7988281e+01   6.6294922e+01
   7.1825650e+01   4.7744314e+01   6.6493619e+01
   7.1736783e+01   4.7833182e+01   6.6450021e+01
   7.1670926e+01   4.8432243e+01   6.6649092e+01
   7.1693186e+01   4.8409982e+01   6.6493619e+01
   7.1604318e+01   4.8321115e+01   6.6450021e+01
   7.1404697e+01   4.8343750e+01   6.6650391e+01
   7.1626404e+01   4.8432243e+01   6.6694361e+01
   7.1559797e+01   4.8321115e+01   6.6627756e+01
   7.1537537e+01   4.8165642e+01   6.6783230e+01
   7.1493191e+01   4.8076774e+01   6.6826828e+01
   7.1536414e+01   4.7810547e+01   6.6782855e+01
   7.1381314e+01   4.7787912e+01   6.6805490e+01
   7.1404324e+01   4.7987907e+01   6.6915695e+01
   7.1315457e+01   4.8076774e+01   6.6872098e+01
   7.2603840e+01   4.7653062e+01   6.5602930e+01
   7.1393877e+01   4.8366521e+01   6.6996059e+01
   7.1260664e+01   4.8366521e+01   6.7173793e+01
   7.1072787e+01   4.8943186e+01   6.7695834e+01
   7.0983920e+01   4.8899588e+01   6.7784701e+01
   7.0895053e+01   4.8810721e+01   6.7828299e+01
   7.0961285e+01   4.8699219e+01   6.7716797e+01
   7.0849783e+01   4.8988455e+01   6.7828299e+01
   7.0605441e+01   4.8877327e+01   6.8161684e+01
   7.0672049e+01   4.8810721e+01   6.8050555e+01
   7.0548088e+01   4.8698710e+01   6.8104787e+01
   7.2114887e+01   4.8521484e+01   6.6204383e+01
   7.1826398e+01   4.8587717e+01   6.6493619e+01
   7.1737906e+01   4.8543745e+01   6.6582859e+01
   7.1416137e+01   4.8521994e+01   6.6840584e+01
   7.1571611e+01   4.8544255e+01   6.6818322e+01
   7.1328193e+01   4.9055197e+01   6.7373787e+01
   6.9649240e+01   4.8188650e+01   6.8537564e+01
   6.9647289e+01   4.7963696e+01   6.8403148e+01
   6.9539152e+01   4.8431203e+01   6.8782945e+01
   6.9471506e+01   4.8321115e+01   6.8715299e+01
   6.9494141e+01   4.8343750e+01   6.8560199e+01
   6.9361418e+01   4.8431203e+01   6.8828215e+01
   6.9293771e+01   4.8321115e+01   6.8760568e+01
   6.9826975e+01   4.8366385e+01   6.8537564e+01
   6.9650654e+01   4.8720439e+01   6.8761982e+01
   6.9650654e+01   4.8542705e+01   6.8716713e+01
   6.9472920e+01   4.8720439e+01   6.8939717e+01
   6.9295186e+01   4.8542705e+01   6.8939717e+01
