   2.1629003e+01   1.9431589e+01  -6.5949659e+00
   2.1744972e+01   1.9633063e+01  -6.4993709e+00
   2.1522775e+01   1.9728309e+01  -6.4305549e+00
   2.1197554e+01   1.9720338e+01  -7.0105728e+00
   2.1264057e+01   1.9489772e+01  -6.9357672e+00
   2.1224333e+01   1.9555927e+01  -6.6965506e+00
   2.0965615e+01   1.9317390e+01  -7.2017629e+00
   2.0899112e+01   1.9547955e+01  -7.2765685e+00
   2.1939486e+01   1.9966583e+01  -7.0214926e+00
   2.1940390e+01   1.9702228e+01  -6.8822090e+00
   2.1900666e+01   1.9768382e+01  -6.6429924e+00
   2.1837867e+01   1.9976206e+01  -6.6743611e+00
   2.1668727e+01   1.9365435e+01  -6.8341825e+00
   2.1824421e+01   1.9500754e+01  -6.9778041e+00
   2.1641948e+01   1.9529846e+01  -7.1482047e+00
   2.1486254e+01   1.9394526e+01  -7.0045832e+00
   2.1575445e+01   1.9760411e+01  -7.2230103e+00
   2.1757013e+01   1.9995675e+01  -7.1918932e+00
   2.1579276e+01   2.0061681e+01  -7.0415811e+00
   2.1353247e+01   1.9855657e+01  -7.1541943e+00
   2.1410009e+01   1.9126898e+01  -7.3393948e+00
   2.1370285e+01   1.9193052e+01  -7.1001782e+00
   2.1111567e+01   1.8954516e+01  -7.6053905e+00
   2.1227536e+01   1.9155990e+01  -7.5097955e+00
   2.1005339e+01   1.9251236e+01  -7.4409795e+00
   2.2086342e+01   1.9339353e+01  -7.2858367e+00
   2.2152846e+01   1.9108788e+01  -7.2110311e+00
   2.2113121e+01   1.9174942e+01  -6.9718145e+00
   2.2046618e+01   1.9405508e+01  -7.0466201e+00
   2.2036876e+01   1.8907314e+01  -7.3066262e+00
   2.1854404e+01   1.8936406e+01  -7.4770268e+00
   2.1787900e+01   1.9166971e+01  -7.5518324e+00
   2.1903869e+01   1.9368445e+01  -7.4562373e+00
   2.1681672e+01   1.9463691e+01  -7.3874213e+00
   2.1565703e+01   1.9262217e+01  -7.4830164e+00
   2.2298798e+01   1.8745914e+01  -7.6146587e+00
   2.2365301e+01   1.8515348e+01  -7.5398532e+00
   2.2259073e+01   1.8812068e+01  -7.3754421e+00
   2.2000356e+01   1.8573531e+01  -7.8806544e+00
   2.2116325e+01   1.8775005e+01  -7.7850594e+00
   2.1894128e+01   1.8870251e+01  -7.7162434e+00
   2.1778159e+01   1.8668778e+01  -7.8118385e+00
   2.2106583e+01   1.8276812e+01  -8.0450655e+00
   2.0680118e+01   1.9243264e+01  -8.0209974e+00
   2.0746622e+01   1.9012699e+01  -7.9461918e+00
   2.0706897e+01   1.9078853e+01  -7.7069752e+00
   2.0640394e+01   1.9309419e+01  -7.7817808e+00
   2.1221981e+01   1.9827418e+01  -7.5741215e+00
   2.1170775e+01   1.9884749e+01  -7.3245949e+00
   2.0938836e+01   1.9481801e+01  -7.5157851e+00
   2.1106011e+01   1.9625945e+01  -7.6697166e+00
   2.0923539e+01   1.9655036e+01  -7.8401172e+00
   2.0756363e+01   1.9510893e+01  -7.6861857e+00
   2.1615169e+01   1.9694257e+01  -7.4622269e+00
   2.1444178e+01   1.9732172e+01  -7.6429375e+00
   2.1367933e+01   1.9464544e+01  -7.9777492e+00
   2.1422955e+01   1.9225155e+01  -7.8926336e+00
   2.1383230e+01   1.9291309e+01  -7.6534170e+00
   2.1328208e+01   1.9530699e+01  -7.7385325e+00
   2.1151291e+01   1.8888361e+01  -7.8446071e+00
   2.1306985e+01   1.9023681e+01  -7.9882287e+00
   2.1124512e+01   1.9052772e+01  -8.1586293e+00
   2.0968819e+01   1.8917453e+01  -8.0150078e+00
   2.1058009e+01   1.9283338e+01  -8.2334349e+00
   2.1185460e+01   1.9493636e+01  -8.1481498e+00
   2.0963263e+01   1.9588882e+01  -8.0793338e+00
   2.0835812e+01   1.9378584e+01  -8.1646189e+00
   2.1807220e+01   1.9528104e+01  -7.8303483e+00
   2.1905255e+01   1.9444354e+01  -7.8569348e+00
   2.2057013e+01   1.9415031e+01  -7.6122767e+00
   2.1927519e+01   1.9677780e+01  -7.4759692e+00
   2.1827624e+01   1.9100817e+01  -7.7910490e+00
   2.1645152e+01   1.9129908e+01  -7.9614496e+00
   2.1756739e+01   1.9536152e+01  -7.8774893e+00
   2.1533312e+01   1.9540400e+01  -8.0077965e+00
   2.1568907e+01   1.8862280e+01  -8.2962613e+00
   2.1635410e+01   1.8631715e+01  -8.2214557e+00
   2.1595686e+01   1.8697869e+01  -7.9822391e+00
   2.1529182e+01   1.8928435e+01  -8.0570447e+00
   2.2149724e+01   1.9006936e+01  -8.2032814e+00
   2.2226103e+01   1.8892547e+01  -8.2573834e+00
   2.2323986e+01   1.8870136e+01  -7.9911910e+00
   2.2172837e+01   1.9102246e+01  -7.8823989e+00
   2.2040080e+01   1.8507377e+01  -8.1198710e+00
   2.1857607e+01   1.8536469e+01  -8.2902717e+00
   2.1880982e+01   1.8912162e+01  -8.6178619e+00
   2.2017732e+01   1.9027979e+01  -8.3265410e+00
   2.1674225e+01   1.9059604e+01  -8.5094505e+00
   2.1741638e+01   1.8334995e+01  -8.3858667e+00
   2.2021593e+01   1.8699479e+01  -8.6706473e+00
   2.1443204e+01   1.9209027e+01  -8.5441118e+00
   2.1903800e+01   1.8788205e+01  -8.7147449e+00
   2.2517791e+01   1.9050605e+01  -6.8702298e+00
   2.2295594e+01   1.9145851e+01  -6.8014139e+00
   2.2345060e+01   1.9577890e+01  -6.7806244e+00
   2.2462528e+01   1.9607497e+01  -6.9013593e+00
   2.2162587e+01   1.9606982e+01  -6.9510250e+00
   2.2086718e+01   1.9825311e+01  -7.1560565e+00
   2.2017095e+01   1.9885962e+01  -7.1183641e+00
   2.2537111e+01   1.9411738e+01  -7.1487458e+00
   2.2557516e+01   1.8984450e+01  -7.1094464e+00
   2.2732727e+01   1.9062402e+01  -7.2837623e+00
   2.2375043e+01   1.9013542e+01  -7.2798471e+00
   2.2348257e+01   1.9265939e+01  -7.4861486e+00
   2.2486631e+01   1.9419786e+01  -7.1958868e+00
   2.2358348e+01   1.9509167e+01  -7.2286405e+00
   2.2166516e+01   1.9479390e+01  -7.3477828e+00
   2.2985480e+01   1.9097626e+01  -7.0824776e+00
   2.2846216e+01   1.8658639e+01  -7.1034568e+00
   2.2624019e+01   1.8753885e+01  -7.0346409e+00
   2.2933024e+01   1.9071797e+01  -7.2160993e+00
   2.2620559e+01   1.8736332e+01  -7.8226852e+00
   2.2747623e+01   1.8911613e+01  -7.6449385e+00
   2.2619341e+01   1.9000994e+01  -7.6776921e+00
   2.2415119e+01   1.8883692e+01  -7.7156982e+00
   2.2050923e+01   1.9763873e+01  -7.3135977e+00
   2.2004446e+01   1.9771283e+01  -7.3569993e+00
   2.2348608e+01   1.9202244e+01  -7.6827832e+00
   2.2257372e+01   1.9216790e+01  -7.7679835e+00
   2.1655063e+01   2.0115726e+01  -6.8255549e+00
   2.1562907e+01   2.0156116e+01  -6.7199742e+00
   2.1615669e+01   2.0071452e+01  -6.6055451e+00
   2.1447747e+01   2.0104530e+01  -6.8934183e+00
   2.1604582e+01   2.0123774e+01  -6.8726960e+00
   2.1861639e+01   1.9898923e+01  -6.9496818e+00
   2.1812229e+01   2.0024541e+01  -6.8240394e+00
   2.1679166e+01   1.9928015e+01  -7.1200824e+00
   2.1422440e+01   2.0042437e+01  -7.0623034e+00
   2.0860389e+01   1.9865010e+01  -7.8755924e+00
   2.1780842e+01   1.9768309e+01  -7.4888286e+00
   2.2003531e+01   1.9412996e+01  -7.7821430e+00
   2.2074548e+01   1.9309577e+01  -7.7417496e+00
   2.1984043e+01   1.9508482e+01  -7.5181834e+00
   2.1985996e+01   1.9518451e+01  -7.6526700e+00
   2.1909616e+01   1.9632839e+01  -7.5985680e+00
   2.1829116e+01   1.9611135e+01  -7.7014544e+00
   2.1996141e+01   1.9219871e+01  -8.0438704e+00
   2.1911592e+01   1.9281300e+01  -7.9428446e+00
   2.1990013e+01   1.9195033e+01  -7.8561650e+00
   2.1784857e+01   1.9322435e+01  -8.1733467e+00
   2.1820363e+01   1.9207860e+01  -8.1357655e+00
   2.1735814e+01   1.9269289e+01  -8.0347396e+00
   2.1678996e+01   1.9440391e+01  -7.9959710e+00
   2.2306603e+01   1.8914251e+01  -8.1544970e+00
   2.2302090e+01   1.8787105e+01  -8.1200848e+00
   2.2232646e+01   1.8912784e+01  -7.8860989e+00
   2.2328499e+01   1.8997282e+01  -8.0256032e+00
   2.2230464e+01   1.9081032e+01  -7.9990166e+00
   2.2132188e+01   1.9112390e+01  -8.0738085e+00
   2.2248251e+01   1.8663120e+01  -8.4543664e+00
   2.2156911e+01   1.8705767e+01  -8.3492743e+00
   2.2199184e+01   1.8621758e+01  -8.2235013e+00
   2.2083981e+01   1.8759255e+01  -8.5418655e+00
   2.2075757e+01   1.8630944e+01  -8.5077472e+00
   2.1984417e+01   1.8673591e+01  -8.4026551e+00
   2.1982955e+01   1.8861366e+01  -8.5503477e+00
   2.1921618e+01   1.8881415e+01  -8.4340238e+00
   2.1824418e+01   1.9121422e+01  -8.2889632e+00
   2.1728305e+01   1.8974858e+01  -8.3964459e+00
   2.1765565e+01   1.9016957e+01  -8.6145426e+00
   2.2043372e+01   1.8548569e+01  -8.6252971e+00
   2.2192264e+01   1.9702716e+01  -7.1046257e+00
   2.2323121e+01   1.9650117e+01  -7.0683496e+00
   2.2850749e+01   1.9205025e+01  -7.0539639e+00
   2.2753118e+01   1.9238166e+01  -7.1291419e+00
   2.2641841e+01   1.9286885e+01  -7.0968268e+00
   2.2667148e+01   1.9348978e+01  -6.9279417e+00
   2.2562418e+01   1.9473831e+01  -6.9798606e+00
   2.2648178e+01   1.9123831e+01  -7.1827365e+00
   2.2790890e+01   1.9162043e+01  -7.2338719e+00
   2.2446195e+01   1.9122304e+01  -7.4301634e+00
   2.2634796e+01   1.9118050e+01  -7.4474682e+00
   2.2550247e+01   1.9179480e+01  -7.3464424e+00
   2.2452309e+01   1.9323115e+01  -7.4024276e+00
   2.2428743e+01   1.9378934e+01  -7.3262562e+00
   2.2287325e+01   1.9588680e+01  -7.2258908e+00
   2.2156468e+01   1.9641278e+01  -7.2621669e+00
   2.2300461e+01   1.9468315e+01  -7.3590098e+00
   2.2239485e+01   1.9385939e+01  -7.4418760e+00
   2.2997168e+01   1.9010576e+01  -7.2563044e+00
   2.2868774e+01   1.8954921e+01  -7.3137004e+00
   2.2689735e+01   1.8870761e+01  -7.7753078e+00
   2.2595774e+01   1.9056814e+01  -7.6015207e+00
   2.2446546e+01   1.9058609e+01  -7.6267979e+00
   2.2561453e+01   1.8960142e+01  -7.8080615e+00
   2.2506459e+01   1.8841045e+01  -7.8207903e+00
