   1.3782131e+01   1.4696625e+01  -1.9666929e+00
   1.3675015e+01   1.5354270e+01  -3.2227815e+00
   1.4636844e+01   1.5640851e+01  -2.3499889e+00
   1.5126612e+01   1.6643259e+01  -3.0740862e+00
   1.5259619e+01   1.6182128e+01  -2.9244750e+00
   1.4716293e+01   1.5508542e+01  -2.8284221e+00
   1.5027680e+01   1.5779181e+01  -3.1156652e+00
   1.4662735e+01   1.5837364e+01  -3.4564664e+00
   1.4351347e+01   1.5566725e+01  -3.1692234e+00
   1.4529728e+01   1.6298495e+01  -3.6060776e+00
   1.4761667e+01   1.6701443e+01  -3.4148874e+00
   1.5882394e+01   1.6723406e+01  -3.4989612e+00
   1.5438000e+01   1.6913898e+01  -3.3613293e+00
   1.5483373e+01   1.8106799e+01  -3.9477946e+00
   1.5171986e+01   1.7836160e+01  -3.6605515e+00
   1.5019496e+01   1.7300904e+01  -4.3301749e+00
   1.5152503e+01   1.6839773e+01  -4.1805637e+00
   1.5073054e+01   1.6972081e+01  -3.7021305e+00
   1.4940047e+01   1.7433212e+01  -3.8517417e+00
   1.4609177e+01   1.6166186e+01  -4.0845108e+00
   1.4920564e+01   1.6436825e+01  -4.3717539e+00
   1.4555619e+01   1.6495008e+01  -4.7125551e+00
   1.4244231e+01   1.6224369e+01  -4.4253120e+00
   1.4422612e+01   1.6956139e+01  -4.8621663e+00
   1.4654550e+01   1.7359087e+01  -4.6709761e+00
   1.6372162e+01   1.7725815e+01  -4.2230585e+00
   1.6505169e+01   1.7264684e+01  -4.0734474e+00
   1.5961843e+01   1.6591097e+01  -3.9773944e+00
   1.6273230e+01   1.6861736e+01  -4.2646375e+00
   1.5908284e+01   1.6919919e+01  -4.6054388e+00
   1.5596897e+01   1.6649280e+01  -4.3181957e+00
   1.5775278e+01   1.7381050e+01  -4.7550499e+00
   1.6007216e+01   1.7783998e+01  -4.5638598e+00
   1.5562822e+01   1.7974490e+01  -4.4262278e+00
   1.5330883e+01   1.7571542e+01  -4.6174179e+00
   1.5724165e+01   1.9368865e+01  -4.9170981e+00
   1.5790668e+01   1.9138299e+01  -4.8422925e+00
   1.5817448e+01   1.8973888e+01  -4.5282704e+00
   1.5777723e+01   1.9040043e+01  -4.2890537e+00
   1.5429815e+01   1.8435621e+01  -4.5758389e+00
   1.5754592e+01   1.8624054e+01  -4.7060709e+00
   1.5727813e+01   1.8788465e+01  -5.0200931e+00
   1.5545340e+01   1.8817557e+01  -5.1904937e+00
   1.5207174e+01   1.8711329e+01  -5.2172728e+00
   1.5064870e+01   1.8493804e+01  -4.9166402e+00
   1.5425723e+01   1.9196482e+01  -5.1830938e+00
   1.5541692e+01   1.9397956e+01  -5.0874987e+00
   1.5045386e+01   1.7497417e+01  -5.4366524e+00
   1.4965938e+01   1.7629726e+01  -4.9582192e+00
   1.4832931e+01   1.8090857e+01  -5.1078303e+00
   1.6211932e+01   1.8531819e+01  -5.3969417e+00
   1.6318159e+01   1.8235099e+01  -5.5613527e+00
   1.6398052e+01   1.7922328e+01  -5.3295360e+00
   1.6318604e+01   1.8054637e+01  -4.8511028e+00
   1.6198986e+01   1.8433562e+01  -4.8437029e+00
   1.6172207e+01   1.8597973e+01  -5.1577251e+00
   1.5854726e+01   1.7248741e+01  -5.2334831e+00
   1.6166114e+01   1.7519380e+01  -5.5207262e+00
   1.5801168e+01   1.7577563e+01  -5.8615274e+00
   1.5489781e+01   1.7306925e+01  -5.5742844e+00
   1.5668161e+01   1.8038694e+01  -6.0111386e+00
   1.5953214e+01   1.8293282e+01  -5.9021540e+00
   1.5846986e+01   1.8590002e+01  -5.7377429e+00
   1.5624789e+01   1.8685248e+01  -5.6689269e+00
   1.5286622e+01   1.8579020e+01  -5.6957060e+00
   1.7127944e+01   1.7805961e+01  -4.6479335e+00
   1.6683549e+01   1.7996453e+01  -4.5103016e+00
   1.7395514e+01   1.8903616e+01  -5.3032148e+00
   1.7355790e+01   1.8969770e+01  -5.0639982e+00
   1.6612954e+01   1.8987880e+01  -5.1923620e+00
   1.6951120e+01   1.9094108e+01  -5.1655829e+00
   1.7133593e+01   1.9065016e+01  -4.9951823e+00
   1.6666512e+01   1.8659058e+01  -4.5643176e+00
   1.6484039e+01   1.8688150e+01  -4.7347183e+00
   1.6457260e+01   1.8852561e+01  -5.0487404e+00
   1.6865133e+01   1.8328286e+01  -5.7604007e+00
   1.7319269e+01   1.8635988e+01  -5.6380265e+00
   1.7213041e+01   1.8932708e+01  -5.4736155e+00
   1.6990844e+01   1.9027954e+01  -5.4047995e+00
   1.6652678e+01   1.8921726e+01  -5.4315786e+00
   1.6536709e+01   1.8720252e+01  -5.5271736e+00
   1.6642936e+01   1.8423532e+01  -5.6915847e+00
   1.6095518e+01   1.8510807e+01  -6.2027866e+00
   1.5989290e+01   1.8807527e+01  -6.0383755e+00
   1.5922787e+01   1.9038092e+01  -6.1131811e+00
   1.5896008e+01   1.9202503e+01  -6.4272033e+00
   1.5700590e+01   1.9133338e+01  -6.0443651e+00
   1.5544896e+01   1.8998019e+01  -5.9007436e+00
   1.5206729e+01   1.8891791e+01  -5.9275227e+00
   1.4048145e+01   1.3774364e+01  -1.6674706e+00
   1.2953308e+01   1.3948913e+01  -2.6898744e+00
   1.4305974e+01   1.4373824e+01  -2.5827580e+00
   1.4438981e+01   1.3912694e+01  -2.4331469e+00
   1.4359532e+01   1.4045002e+01  -1.9547137e+00
   1.4226525e+01   1.4506133e+01  -2.1043248e+00
   1.4207042e+01   1.3509746e+01  -2.6243370e+00
   1.3842096e+01   1.3567929e+01  -2.9651383e+00
   1.3709090e+01   1.4029060e+01  -3.1147494e+00
   1.3941028e+01   1.4432008e+01  -2.9235593e+00
   1.3496634e+01   1.4622500e+01  -2.7859273e+00
   1.3264695e+01   1.4219552e+01  -2.9771175e+00
   1.4651436e+01   1.3319254e+01  -2.7619690e+00
   1.4365939e+01   1.3245128e+01  -3.5812034e+00
   1.3921545e+01   1.3435620e+01  -3.4435715e+00
   1.4198857e+01   1.5031469e+01  -3.8388467e+00
   1.4331864e+01   1.4570338e+01  -3.6892356e+00
   1.4252416e+01   1.4702647e+01  -3.2108024e+00
   1.4119409e+01   1.5163778e+01  -3.3604135e+00
   1.3788538e+01   1.3896751e+01  -3.5931826e+00
   1.4099926e+01   1.4167390e+01  -3.8804257e+00
   1.4544320e+01   1.3976898e+01  -4.0180576e+00
   1.5194762e+01   1.3992840e+01  -2.8580219e+00
   1.4883375e+01   1.3722201e+01  -2.5707788e+00
   1.5061755e+01   1.4453971e+01  -3.0076330e+00
   1.5293694e+01   1.4856919e+01  -2.8164429e+00
   1.4849300e+01   1.5047411e+01  -2.6788110e+00
   1.4617361e+01   1.4644463e+01  -2.8700011e+00
   1.5551523e+01   1.5456380e+01  -3.7317303e+00
   1.5684530e+01   1.4995249e+01  -3.5821192e+00
   1.5605082e+01   1.5127558e+01  -3.1036860e+00
   1.5472075e+01   1.5588689e+01  -3.2532971e+00
   1.5141204e+01   1.4321662e+01  -3.4860663e+00
   1.5087646e+01   1.4650484e+01  -4.1141106e+00
   1.4776259e+01   1.4379846e+01  -3.8268675e+00
   1.4954639e+01   1.5111615e+01  -4.2637217e+00
   1.5186578e+01   1.5514563e+01  -4.0725316e+00
   1.4742184e+01   1.5705055e+01  -3.9348996e+00
   1.4510245e+01   1.5302107e+01  -4.1260898e+00
   1.6094849e+01   1.6129966e+01  -3.8277833e+00
   1.5862911e+01   1.5727019e+01  -4.0189734e+00
   1.5444407e+01   1.6114024e+01  -4.9878190e+00
   1.5577414e+01   1.5652893e+01  -4.8382079e+00
   1.5497965e+01   1.5785202e+01  -4.3597747e+00
   1.5364958e+01   1.6246333e+01  -4.5093858e+00
   1.5034088e+01   1.4979306e+01  -4.7421549e+00
   1.5987733e+01   1.6787610e+01  -5.0838720e+00
   1.5755794e+01   1.6384663e+01  -5.2750621e+00
   1.6218469e+01   1.9429950e+01  -4.3236907e+00
   1.6062776e+01   1.9294630e+01  -4.1800691e+00
   1.6151966e+01   1.9660515e+01  -4.3984962e+00
   1.6104324e+01   1.8938276e+01  -4.4707832e+00
   1.6064600e+01   1.9004431e+01  -4.2315666e+00
   1.6508994e+01   1.8813938e+01  -4.3691986e+00
   1.6326521e+01   1.8843030e+01  -4.5395992e+00
   1.6364422e+01   1.9067075e+01  -4.7273183e+00
   1.6480391e+01   1.9268549e+01  -4.6317233e+00
   1.6258194e+01   1.9363795e+01  -4.5629073e+00
   1.6142224e+01   1.9162321e+01  -4.6585023e+00
   1.6396850e+01   2.0161719e+01  -4.7605449e+00
   1.6463353e+01   1.9931154e+01  -4.6857393e+00
   1.6191690e+01   1.9594361e+01  -4.6377128e+00
   1.6347384e+01   1.9729680e+01  -4.7813344e+00
   1.6164911e+01   1.9758772e+01  -4.9517350e+00
   1.6009218e+01   1.9623452e+01  -4.8081135e+00
   1.6098408e+01   1.9989337e+01  -5.0265406e+00
   1.6214377e+01   2.0190811e+01  -4.9309455e+00
   1.6841244e+01   1.9971227e+01  -4.8981768e+00
   1.6685551e+01   1.9835908e+01  -4.7545553e+00
   1.6774741e+01   2.0201793e+01  -4.9729824e+00
   1.6552544e+01   2.0297039e+01  -4.9041664e+00
   1.6064155e+01   1.9184893e+01  -4.9418165e+00
   1.5997652e+01   1.9415458e+01  -5.0166221e+00
   1.6609306e+01   1.9568280e+01  -5.0893670e+00
   1.6675809e+01   1.9337714e+01  -5.0145614e+00
   1.6636085e+01   1.9403869e+01  -4.7753448e+00
   1.6569581e+01   1.9634434e+01  -4.8501504e+00
   1.6442046e+01   1.9224966e+01  -5.1542540e+00
   1.6286353e+01   1.9089647e+01  -5.0106325e+00
   1.6310863e+01   1.9395897e+01  -5.3553627e+00
   1.6426833e+01   1.9597371e+01  -5.2597676e+00
   1.6204636e+01   1.9692617e+01  -5.1909516e+00
   1.6088666e+01   1.9491143e+01  -5.2865467e+00
   1.7131769e+01   1.9355216e+01  -4.9436847e+00
   1.6949296e+01   1.9384308e+01  -5.1140854e+00
   1.6987196e+01   1.9608353e+01  -5.3018045e+00
   1.7103166e+01   1.9809827e+01  -5.2062094e+00
   1.6880969e+01   1.9905073e+01  -5.1373934e+00
   1.6764999e+01   1.9703599e+01  -5.2329885e+00
   1.7615887e+01   1.9098570e+01  -5.3205333e+00
   1.7991954e+01   1.9428843e+01  -5.4814733e+00
   1.7769757e+01   1.9524089e+01  -5.4126573e+00
   1.7653788e+01   1.9322615e+01  -5.5082524e+00
   1.6602010e+01   2.0729078e+01  -4.8833769e+00
   1.6757703e+01   2.0864398e+01  -5.0269985e+00
   1.6575231e+01   2.0893489e+01  -5.1973991e+00
   1.6820114e+01   2.1394693e+01  -5.5594477e+00
   1.6548451e+01   2.1057900e+01  -5.5114213e+00
   1.6704145e+01   2.1193220e+01  -5.6550428e+00
   1.6521672e+01   2.1222311e+01  -5.8254434e+00
   1.7224784e+01   2.1270356e+01  -5.4578631e+00
   1.7380478e+01   2.1405675e+01  -5.6014846e+00
   1.7198005e+01   2.1434767e+01  -5.7718853e+00
   1.7042312e+01   2.1299447e+01  -5.6282637e+00
   1.7131502e+01   2.1665332e+01  -5.8466908e+00
   1.7247471e+01   2.1866806e+01  -5.7510958e+00
   1.6909305e+01   2.1760578e+01  -5.7778748e+00
   1.6766556e+01   2.1723516e+01  -6.1874921e+00
   1.6494893e+01   2.1386722e+01  -6.1394656e+00
   1.6650587e+01   2.1522042e+01  -6.2830871e+00
   1.6468114e+01   2.1551133e+01  -6.4534878e+00
   1.6712998e+01   2.2052338e+01  -6.8155364e+00
   1.6441335e+01   2.1715544e+01  -6.7675099e+00
   1.6597029e+01   2.1850864e+01  -6.9111315e+00
   1.6414556e+01   2.1879955e+01  -7.0815321e+00
   1.7608325e+01   2.2569484e+01  -6.0175493e+00
   1.7452631e+01   2.2434165e+01  -5.8739278e+00
   1.7541821e+01   2.2800050e+01  -6.0923549e+00
   1.7376386e+01   2.2166537e+01  -6.2087395e+00
   1.7442889e+01   2.1935971e+01  -6.1339339e+00
   1.7403165e+01   2.2002126e+01  -5.8947173e+00
   1.7336661e+01   2.2232691e+01  -5.9695229e+00
   1.7171226e+01   2.1599178e+01  -6.0859074e+00
   1.7326920e+01   2.1734497e+01  -6.2295290e+00
   1.7144447e+01   2.1763589e+01  -6.3999296e+00
   1.6988753e+01   2.1628269e+01  -6.2563081e+00
   1.7077944e+01   2.1994154e+01  -6.4747352e+00
   1.7193913e+01   2.2195628e+01  -6.3791401e+00
   1.6855747e+01   2.2089400e+01  -6.4059192e+00
   1.7847559e+01   2.1811633e+01  -6.0323492e+00
   1.8003253e+01   2.1946953e+01  -6.1759708e+00
   1.7820780e+01   2.1976044e+01  -6.3463714e+00
   1.7665086e+01   2.1840725e+01  -6.2027499e+00
   1.7754277e+01   2.2206610e+01  -6.4211770e+00
   1.7870246e+01   2.2408084e+01  -6.3255819e+00
   1.7648049e+01   2.2503330e+01  -6.2567659e+00
   1.7532080e+01   2.2301856e+01  -6.3523610e+00
   1.7868980e+01   2.2941211e+01  -6.3283711e+00
   1.7581545e+01   2.2733895e+01  -6.3315715e+00
   1.7399073e+01   2.2762987e+01  -6.5019721e+00
   1.7322828e+01   2.2495359e+01  -6.8367838e+00
   1.7389331e+01   2.2264793e+01  -6.7619782e+00
   1.7349607e+01   2.2330948e+01  -6.5227616e+00
   1.7283103e+01   2.2561513e+01  -6.5975672e+00
   1.7117668e+01   2.1928000e+01  -6.7139518e+00
   1.7273362e+01   2.2063319e+01  -6.8575733e+00
   1.7090889e+01   2.2092411e+01  -7.0279739e+00
   1.6935195e+01   2.1957092e+01  -6.8843524e+00
   1.7024385e+01   2.2322976e+01  -7.1027795e+00
   1.7140355e+01   2.2524450e+01  -7.0071844e+00
   1.6918158e+01   2.2619696e+01  -6.9383685e+00
   1.6802188e+01   2.2418222e+01  -7.0339635e+00
   1.7933173e+01   2.2639994e+01  -6.7754281e+00
   1.8057929e+01   2.2570525e+01  -6.7354990e+00
   1.8078723e+01   2.2505473e+01  -6.5322017e+00
   1.7926580e+01   2.2736421e+01  -6.4250143e+00
   1.7794001e+01   2.2140455e+01  -6.6603936e+00
   1.7949695e+01   2.2275775e+01  -6.8040151e+00
   1.7767222e+01   2.2304867e+01  -6.9744157e+00
   1.7611528e+01   2.2169547e+01  -6.8307942e+00
   1.7678785e+01   2.2561026e+01  -7.1554623e+00
   1.7801181e+01   2.2661038e+01  -6.8986877e+00
   1.7439250e+01   2.2691988e+01  -7.0619821e+00
   1.5269585e+01   1.9241625e+01  -5.7497221e+00
   1.5049212e+01   1.9046672e+01  -5.7324036e+00
   1.5879414e+01   1.9684646e+01  -5.7709695e+00
   1.5945918e+01   1.9454081e+01  -5.6961639e+00
   1.5906194e+01   1.9520235e+01  -5.4569473e+00
   1.5839690e+01   1.9750801e+01  -5.5317529e+00
   1.5712155e+01   1.9341333e+01  -5.8358565e+00
   1.5556461e+01   1.9206013e+01  -5.6922350e+00
   1.5632706e+01   1.9473641e+01  -5.3574233e+00
   1.5516737e+01   1.9272168e+01  -5.4530184e+00
   1.5580972e+01   1.9512264e+01  -6.0369652e+00
   1.5696942e+01   1.9713738e+01  -5.9413701e+00
   1.5474744e+01   1.9808984e+01  -5.8725541e+00
   1.5358775e+01   1.9607510e+01  -5.9681492e+00
   1.5825856e+01   2.0013468e+01  -6.3990138e+00
   1.5892360e+01   1.9782903e+01  -6.3242083e+00
   1.5852635e+01   1.9849057e+01  -6.0849917e+00
   1.5786132e+01   2.0079623e+01  -6.1597972e+00
   1.5671987e+01   1.9587949e+01  -6.3068898e+00
   1.6343292e+01   2.0490541e+01  -5.3885892e+00
   1.6409795e+01   2.0259976e+01  -5.3137837e+00
   1.6370071e+01   2.0326130e+01  -5.0745671e+00
   1.6138132e+01   1.9923183e+01  -5.2657572e+00
   1.6293826e+01   2.0058502e+01  -5.4093787e+00
   1.6111353e+01   2.0087594e+01  -5.5797794e+00
   1.5955659e+01   1.9952274e+01  -5.4361578e+00
   1.6044850e+01   2.0318159e+01  -5.6545849e+00
   1.6160819e+01   2.0519633e+01  -5.5589899e+00
   1.7019625e+01   2.0702997e+01  -5.3350310e+00
   1.7086128e+01   2.0472432e+01  -5.2602255e+00
   1.6814465e+01   2.0135638e+01  -5.2121990e+00
   1.6970159e+01   2.0270958e+01  -5.3558205e+00
   1.6787686e+01   2.0300049e+01  -5.5262212e+00
   1.6631992e+01   2.0164730e+01  -5.3825996e+00
   1.6721183e+01   2.0530615e+01  -5.6010267e+00
   1.6837152e+01   2.0732089e+01  -5.5054317e+00
   1.6614955e+01   2.0827335e+01  -5.4366157e+00
   1.6498986e+01   2.0625861e+01  -5.5322108e+00
   1.6555747e+01   1.9897102e+01  -5.7174113e+00
   1.6622251e+01   1.9666536e+01  -5.6426057e+00
   1.6582526e+01   1.9732691e+01  -5.4033891e+00
   1.6516023e+01   1.9963256e+01  -5.4781947e+00
   1.6350588e+01   1.9329743e+01  -5.5945793e+00
   1.6506281e+01   1.9465062e+01  -5.7382008e+00
   1.6323809e+01   1.9494154e+01  -5.9086014e+00
   1.6168115e+01   1.9358835e+01  -5.7649799e+00
   1.6257305e+01   1.9724719e+01  -5.9834070e+00
   1.6373275e+01   1.9926193e+01  -5.8878119e+00
   1.6151077e+01   2.0021439e+01  -5.8189960e+00
   1.6035108e+01   1.9819966e+01  -5.9145910e+00
   1.7232080e+01   2.0109557e+01  -5.6638531e+00
   1.7298584e+01   1.9878992e+01  -5.5890476e+00
   1.7258859e+01   1.9945146e+01  -5.3498309e+00
   1.7192356e+01   2.0175712e+01  -5.4246365e+00
   1.7026921e+01   1.9542199e+01  -5.5410211e+00
   1.7182614e+01   1.9677518e+01  -5.6846426e+00
   1.7000142e+01   1.9706610e+01  -5.8550432e+00
   1.6844448e+01   1.9571290e+01  -5.7114217e+00
   1.6933638e+01   1.9937175e+01  -5.9298488e+00
   1.7049608e+01   2.0138649e+01  -5.8342537e+00
   1.6827410e+01   2.0233895e+01  -5.7654378e+00
   1.6711441e+01   2.0032421e+01  -5.8610328e+00
   1.6289734e+01   2.0819364e+01  -6.0166336e+00
   1.6356237e+01   2.0588798e+01  -5.9418280e+00
   1.6316513e+01   2.0654953e+01  -5.7026114e+00
   1.6084574e+01   2.0252005e+01  -5.8938015e+00
   1.6240268e+01   2.0387324e+01  -6.0374231e+00
   1.6057795e+01   2.0416416e+01  -6.2078237e+00
   1.5902101e+01   2.0281096e+01  -6.0642022e+00
   1.5991291e+01   2.0646981e+01  -6.2826293e+00
   1.6107261e+01   2.0848455e+01  -6.1870342e+00
   1.6966067e+01   2.1031819e+01  -5.9630754e+00
   1.7032570e+01   2.0801254e+01  -5.8882698e+00
   1.6992846e+01   2.0867408e+01  -5.6490532e+00
   1.6926342e+01   2.1097974e+01  -5.7238588e+00
   1.6760907e+01   2.0464460e+01  -5.8402433e+00
   1.6916601e+01   2.0599780e+01  -5.9838649e+00
   1.6734128e+01   2.0628871e+01  -6.1542655e+00
   1.6578434e+01   2.0493552e+01  -6.0106440e+00
   1.6667624e+01   2.0859437e+01  -6.2290711e+00
   1.6783594e+01   2.1060911e+01  -6.1334760e+00
   1.6561397e+01   2.1156157e+01  -6.0646600e+00
   1.6445427e+01   2.0954683e+01  -6.1602551e+00
   1.6502189e+01   2.0225924e+01  -6.3454556e+00
   1.6568693e+01   1.9995358e+01  -6.2706501e+00
   1.6528968e+01   2.0061513e+01  -6.0314335e+00
   1.6462465e+01   2.0292078e+01  -6.1062390e+00
   1.6297030e+01   1.9658565e+01  -6.2226236e+00
   1.6452723e+01   1.9793884e+01  -6.3662451e+00
   1.6270250e+01   1.9822976e+01  -6.5366458e+00
   1.6114557e+01   1.9687657e+01  -6.3930242e+00
   1.6203747e+01   2.0053542e+01  -6.6114513e+00
   1.6319716e+01   2.0255015e+01  -6.5158563e+00
   1.6097519e+01   2.0350261e+01  -6.4470403e+00
   1.5981550e+01   2.0148788e+01  -6.5426354e+00
   1.7178522e+01   2.0438379e+01  -6.2918975e+00
   1.7245026e+01   2.0207814e+01  -6.2170919e+00
   1.7205301e+01   2.0273968e+01  -5.9778753e+00
   1.7138798e+01   2.0504534e+01  -6.0526809e+00
   1.6973363e+01   1.9871021e+01  -6.1690654e+00
   1.7129056e+01   2.0006340e+01  -6.3126870e+00
   1.6946583e+01   2.0035432e+01  -6.4830876e+00
   1.6790890e+01   1.9900112e+01  -6.3394660e+00
   1.6880080e+01   2.0265997e+01  -6.5578932e+00
   1.6996049e+01   2.0467471e+01  -6.4622981e+00
   1.6773852e+01   2.0562717e+01  -6.3934821e+00
   1.6657883e+01   2.0361243e+01  -6.4890772e+00
   1.7464019e+01   2.0512505e+01  -5.4726630e+00
   1.7308325e+01   2.0377186e+01  -5.3290414e+00
   1.7397516e+01   2.0743070e+01  -5.5474686e+00
   1.7175318e+01   2.0838316e+01  -5.4786526e+00
   1.7703254e+01   1.9754654e+01  -5.4874629e+00
   1.7858947e+01   1.9889973e+01  -5.6310844e+00
   1.7676475e+01   1.9919065e+01  -5.8014851e+00
   1.7520781e+01   1.9783746e+01  -5.6578635e+00
   1.7609971e+01   2.0149631e+01  -5.8762906e+00
   1.7725941e+01   2.0351104e+01  -5.7806956e+00
   1.7503743e+01   2.0446350e+01  -5.7118796e+00
   1.7387774e+01   2.0244877e+01  -5.8074747e+00
   1.7642400e+01   2.1244275e+01  -5.9095172e+00
   1.7708903e+01   2.1013709e+01  -5.8347116e+00
   1.7602675e+01   2.1310429e+01  -5.6703006e+00
   1.7437240e+01   2.0676916e+01  -5.7866852e+00
   1.7592934e+01   2.0812235e+01  -5.9303067e+00
   1.7410461e+01   2.0841327e+01  -6.1007073e+00
   1.7254767e+01   2.0706008e+01  -5.9570858e+00
   1.7343957e+01   2.1071892e+01  -6.1755129e+00
   1.7459927e+01   2.1273366e+01  -6.0799178e+00
   1.7237730e+01   2.1368612e+01  -6.0111019e+00
   1.7121760e+01   2.1167139e+01  -6.1066969e+00
   1.8086794e+01   2.1053783e+01  -6.0471491e+00
   1.7931100e+01   2.0918463e+01  -5.9035276e+00
   1.8020290e+01   2.1284348e+01  -6.1219547e+00
   1.7914063e+01   2.1581068e+01  -5.9575437e+00
   1.7798093e+01   2.1379594e+01  -6.0531387e+00
   1.7854855e+01   2.0650835e+01  -6.2383393e+00
   1.7921359e+01   2.0420269e+01  -6.1635337e+00
   1.7881634e+01   2.0486424e+01  -5.9243171e+00
   1.7815131e+01   2.0716989e+01  -5.9991227e+00
   1.7649696e+01   2.0083476e+01  -6.1155072e+00
   1.7805389e+01   2.0218796e+01  -6.2591288e+00
   1.7622916e+01   2.0247887e+01  -6.4295294e+00
   1.7467223e+01   2.0112568e+01  -6.2859079e+00
   1.7556413e+01   2.0478453e+01  -6.5043350e+00
   1.7672382e+01   2.0679927e+01  -6.4087399e+00
   1.7450185e+01   2.0775173e+01  -6.3399239e+00
   1.7334216e+01   2.0573699e+01  -6.4355190e+00
   1.8531188e+01   2.0863290e+01  -6.1847811e+00
   1.8326028e+01   2.0295932e+01  -6.0619490e+00
   1.8143556e+01   2.0325023e+01  -6.2323497e+00
   1.8232746e+01   2.0690908e+01  -6.4507768e+00
   1.8348715e+01   2.0892382e+01  -6.3551817e+00
   1.8126518e+01   2.0987628e+01  -6.2863657e+00
   1.8010549e+01   2.0786154e+01  -6.3819608e+00
   1.6223053e+01   1.8920275e+01  -5.8986829e+00
   1.6156549e+01   1.9150840e+01  -5.9734885e+00
   1.6768203e+01   1.9303662e+01  -6.0462334e+00
   1.6834706e+01   1.9073096e+01  -5.9714278e+00
   1.6794982e+01   1.9139251e+01  -5.7322112e+00
   1.6728479e+01   1.9369816e+01  -5.8070168e+00
   1.6563043e+01   1.8736303e+01  -5.9234013e+00
   1.6718737e+01   1.8871623e+01  -6.0670229e+00
   1.6536264e+01   1.8900714e+01  -6.2374235e+00
   1.6380571e+01   1.8765395e+01  -6.0938020e+00
   1.6521495e+01   1.9092657e+01  -5.6326872e+00
   1.6405526e+01   1.8891183e+01  -5.7282823e+00
   1.6469761e+01   1.9131280e+01  -6.3122291e+00
   1.6585730e+01   1.9332754e+01  -6.2166340e+00
   1.6363533e+01   1.9428000e+01  -6.1478180e+00
   1.6247564e+01   1.9226526e+01  -6.2434131e+00
   1.7444536e+01   1.9516117e+01  -5.9926752e+00
   1.7511039e+01   1.9285552e+01  -5.9178696e+00
   1.7471315e+01   1.9351706e+01  -5.6786530e+00
   1.7404812e+01   1.9582272e+01  -5.7534586e+00
   1.7239376e+01   1.8948759e+01  -5.8698432e+00
   1.7395070e+01   1.9084078e+01  -6.0134647e+00
   1.7212597e+01   1.9113170e+01  -6.1838653e+00
   1.7056904e+01   1.8977850e+01  -6.0402438e+00
   1.7250942e+01   1.9156753e+01  -5.6613346e+00
   1.7028745e+01   1.9251999e+01  -5.5925186e+00
   1.7146094e+01   1.9343735e+01  -6.2586709e+00
   1.7262063e+01   1.9545209e+01  -6.1630758e+00
   1.7039866e+01   1.9640455e+01  -6.0942599e+00
   1.6923897e+01   1.9438981e+01  -6.1898549e+00
   1.6422119e+01   1.8409041e+01  -6.3845161e+00
   1.6382395e+01   1.8475195e+01  -6.1452995e+00
   1.6980659e+01   1.8710222e+01  -6.3750555e+00
   1.7007438e+01   1.8545811e+01  -6.0610333e+00
   1.6940934e+01   1.8776376e+01  -6.1358388e+00
   1.6593026e+01   1.8171955e+01  -6.4226240e+00
   1.6787064e+01   1.8350857e+01  -6.0437148e+00
   1.6564867e+01   1.8446104e+01  -5.9748988e+00
   1.6682216e+01   1.8537840e+01  -6.6410511e+00
   1.6798186e+01   1.8739314e+01  -6.5454561e+00
   1.6575989e+01   1.8834560e+01  -6.4766401e+00
   1.6460019e+01   1.8633086e+01  -6.5722352e+00
   1.7252322e+01   1.9047015e+01  -6.4230819e+00
   1.6116381e+01   1.9397457e+01  -6.4445217e+00
   1.6714645e+01   1.9632484e+01  -6.6742777e+00
   1.6781148e+01   1.9401918e+01  -6.5994721e+00
   1.6741424e+01   1.9468073e+01  -6.3602555e+00
   1.6674920e+01   1.9698638e+01  -6.4350611e+00
   1.6509485e+01   1.9065125e+01  -6.5514457e+00
   1.6665179e+01   1.9200445e+01  -6.6950672e+00
   1.6327012e+01   1.9094217e+01  -6.7218463e+00
   1.6532172e+01   1.9661576e+01  -6.8446783e+00
   1.6309975e+01   1.9756822e+01  -6.7758624e+00
   1.7390978e+01   1.9844940e+01  -6.6207195e+00
   1.7457481e+01   1.9614374e+01  -6.5459140e+00
   1.7417757e+01   1.9680528e+01  -6.3066974e+00
   1.7351253e+01   1.9911094e+01  -6.3815029e+00
   1.7185818e+01   1.9277581e+01  -6.4978875e+00
   1.7341512e+01   1.9412900e+01  -6.6415090e+00
   1.7159039e+01   1.9441992e+01  -6.8119097e+00
   1.7003345e+01   1.9306672e+01  -6.6682881e+00
   1.7092536e+01   1.9672557e+01  -6.8867152e+00
   1.7208505e+01   1.9874031e+01  -6.7911202e+00
   1.6986308e+01   1.9969277e+01  -6.7223042e+00
   1.6870338e+01   1.9767803e+01  -6.8178993e+00
   1.6927100e+01   1.9039044e+01  -7.0030998e+00
   1.6953879e+01   1.8874633e+01  -6.6890776e+00
   1.6887376e+01   1.9105199e+01  -6.7638832e+00
   1.7198763e+01   1.9375837e+01  -7.0511263e+00
   1.8081145e+01   1.9794727e+01  -5.6999004e+00
   1.7716199e+01   1.9852911e+01  -6.0407017e+00
   1.7600230e+01   1.9651437e+01  -6.1362967e+00
   1.8027586e+01   2.0123550e+01  -6.3279447e+00
   1.7662641e+01   2.0181733e+01  -6.6687460e+00
   1.7546671e+01   1.9980259e+01  -6.7643411e+00
   1.6236175e+01   2.1148186e+01  -6.6446779e+00
   1.6302679e+01   2.0917620e+01  -6.5698723e+00
   1.6262955e+01   2.0983775e+01  -6.3306557e+00
   1.6196451e+01   2.1214340e+01  -6.4054613e+00
   1.6031016e+01   2.0580827e+01  -6.5218459e+00
   1.6186710e+01   2.0716146e+01  -6.6654674e+00
   1.6004237e+01   2.0745238e+01  -6.8358680e+00
   1.5848543e+01   2.0609919e+01  -6.6922465e+00
   1.5937733e+01   2.0975803e+01  -6.9106736e+00
   1.6053703e+01   2.1177277e+01  -6.8150785e+00
   1.6912508e+01   2.1360641e+01  -6.5911197e+00
   1.6979012e+01   2.1130076e+01  -6.5163142e+00
   1.6939288e+01   2.1196230e+01  -6.2770976e+00
   1.6872784e+01   2.1426796e+01  -6.3519031e+00
   1.6707349e+01   2.0793282e+01  -6.4682877e+00
   1.6863043e+01   2.0928602e+01  -6.6119092e+00
   1.6680570e+01   2.0957694e+01  -6.7823099e+00
   1.6524876e+01   2.0822374e+01  -6.6386883e+00
   1.6614066e+01   2.1188259e+01  -6.8571154e+00
   1.6730036e+01   2.1389733e+01  -6.7615204e+00
   1.6507838e+01   2.1484979e+01  -6.6927044e+00
   1.6391869e+01   2.1283505e+01  -6.7882994e+00
   1.6448631e+01   2.0554746e+01  -6.9735000e+00
   1.6515134e+01   2.0324180e+01  -6.8986944e+00
   1.6475410e+01   2.0390335e+01  -6.6594778e+00
   1.6408907e+01   2.0620900e+01  -6.7342834e+00
   1.6243471e+01   1.9987387e+01  -6.8506679e+00
   1.6399165e+01   2.0122707e+01  -6.9942895e+00
   1.7124964e+01   2.0767201e+01  -6.9199418e+00
   1.7191467e+01   2.0536636e+01  -6.8451362e+00
   1.7151743e+01   2.0602790e+01  -6.6059196e+00
   1.7085240e+01   2.0833356e+01  -6.6807252e+00
   1.6919804e+01   2.0199843e+01  -6.7971098e+00
   1.7075498e+01   2.0335162e+01  -6.9407313e+00
   1.6893025e+01   2.0364254e+01  -7.1111319e+00
   1.6737332e+01   2.0228934e+01  -6.9675104e+00
   1.6826522e+01   2.0594819e+01  -7.1859375e+00
   1.6942491e+01   2.0796293e+01  -7.0903424e+00
   1.6720294e+01   2.0891539e+01  -7.0215265e+00
   1.6604325e+01   2.0690065e+01  -7.1171215e+00
   1.6249121e+01   2.1246442e+01  -7.1979167e+00
   1.6209396e+01   2.1312597e+01  -6.9587001e+00
   1.6142893e+01   2.1543162e+01  -7.0335056e+00
   1.6858950e+01   2.1689463e+01  -7.2191641e+00
   1.6925454e+01   2.1458898e+01  -7.1443585e+00
   1.6885729e+01   2.1525052e+01  -6.9051419e+00
   1.6819226e+01   2.1755618e+01  -6.9799475e+00
   1.6653791e+01   2.1122105e+01  -7.0963320e+00
   1.6809484e+01   2.1257424e+01  -7.2399536e+00
   1.6627012e+01   2.1286516e+01  -7.4103542e+00
   1.6471318e+01   2.1151196e+01  -7.2667327e+00
   1.6676477e+01   2.1718555e+01  -7.3895647e+00
   1.6454280e+01   2.1813801e+01  -7.3207487e+00
   1.7071406e+01   2.1096023e+01  -7.5479861e+00
   1.7137909e+01   2.0865458e+01  -7.4731806e+00
   1.7098185e+01   2.0931612e+01  -7.2339640e+00
   1.7031681e+01   2.1162178e+01  -7.3087695e+00
   1.6866246e+01   2.0528665e+01  -7.4251541e+00
   1.7588841e+01   2.1573097e+01  -6.5375615e+00
   1.7655345e+01   2.1342531e+01  -6.4627560e+00
   1.7615620e+01   2.1408686e+01  -6.2235394e+00
   1.7549117e+01   2.1639251e+01  -6.2983449e+00
   1.7383682e+01   2.1005738e+01  -6.4147295e+00
   1.7539375e+01   2.1141057e+01  -6.5583510e+00
   1.7356903e+01   2.1170149e+01  -6.7287517e+00
   1.7201209e+01   2.1034830e+01  -6.5851301e+00
   1.7290399e+01   2.1400715e+01  -6.8035572e+00
   1.7406369e+01   2.1602188e+01  -6.7079622e+00
   1.7184171e+01   2.1697434e+01  -6.6391462e+00
   1.7068202e+01   2.1495961e+01  -6.7347413e+00
   1.8265174e+01   2.1785552e+01  -6.4840034e+00
   1.8331678e+01   2.1554987e+01  -6.4091978e+00
   1.8225450e+01   2.1851707e+01  -6.2447868e+00
   1.8060015e+01   2.1218194e+01  -6.3611713e+00
   1.8215708e+01   2.1353513e+01  -6.5047929e+00
   1.8033236e+01   2.1382605e+01  -6.6751935e+00
   1.7877542e+01   2.1247285e+01  -6.5315719e+00
   1.7966732e+01   2.1613170e+01  -6.7499990e+00
   1.8082702e+01   2.1814644e+01  -6.6544040e+00
   1.7860504e+01   2.1909890e+01  -6.5855880e+00
   1.7744535e+01   2.1708416e+01  -6.6811831e+00
   1.7801297e+01   2.0979657e+01  -6.8663836e+00
   1.7867800e+01   2.0749091e+01  -6.7915780e+00
   1.7828076e+01   2.0815246e+01  -6.5523614e+00
   1.7761573e+01   2.1045811e+01  -6.6271670e+00
   1.7596137e+01   2.0412298e+01  -6.7435516e+00
   1.7751831e+01   2.0547618e+01  -6.8871731e+00
   1.7569358e+01   2.0576709e+01  -7.0575737e+00
   1.7413665e+01   2.0441390e+01  -6.9139522e+00
   1.7502855e+01   2.0807275e+01  -7.1323793e+00
   1.7618824e+01   2.1008749e+01  -7.0367842e+00
   1.7396627e+01   2.1103995e+01  -6.9679683e+00
   1.7280658e+01   2.0902521e+01  -7.0635633e+00
   1.8477630e+01   2.1192113e+01  -6.8128254e+00
   1.8504409e+01   2.1027701e+01  -6.4988033e+00
   1.8437906e+01   2.1258267e+01  -6.5736088e+00
   1.8089998e+01   2.0653845e+01  -6.8603940e+00
   1.8179188e+01   2.1019730e+01  -7.0788211e+00
   1.8295157e+01   2.1221204e+01  -6.9832261e+00
   1.8072960e+01   2.1316450e+01  -6.9144101e+00
   1.7956991e+01   2.1114976e+01  -7.0100052e+00
   1.7535283e+01   2.1901919e+01  -7.1656059e+00
   1.7601787e+01   2.1671353e+01  -7.0908003e+00
   1.7562062e+01   2.1737508e+01  -6.8515837e+00
   1.7495559e+01   2.1968073e+01  -6.9263893e+00
   1.7330124e+01   2.1334560e+01  -7.0427738e+00
   1.7485817e+01   2.1469880e+01  -7.1863954e+00
   1.7303344e+01   2.1498971e+01  -7.3567960e+00
   1.7147651e+01   2.1363652e+01  -7.2131745e+00
   1.7236841e+01   2.1729537e+01  -7.4316016e+00
   1.7352810e+01   2.1931010e+01  -7.3360065e+00
   1.7130613e+01   2.2026257e+01  -7.2671905e+00
   1.7014644e+01   2.1824783e+01  -7.3627856e+00
   1.8211616e+01   2.2114374e+01  -7.1120477e+00
   1.8278120e+01   2.1883809e+01  -7.0372421e+00
   1.8238395e+01   2.1949963e+01  -6.7980255e+00
   1.8171892e+01   2.2180529e+01  -6.8728311e+00
   1.8006457e+01   2.1547016e+01  -6.9892157e+00
   1.8162150e+01   2.1682335e+01  -7.1328372e+00
   1.7979677e+01   2.1711427e+01  -7.3032378e+00
   1.7823984e+01   2.1576107e+01  -7.1596163e+00
   1.7913174e+01   2.1941992e+01  -7.3780434e+00
   1.8029143e+01   2.2143466e+01  -7.2824483e+00
   1.7806946e+01   2.2238712e+01  -7.2136324e+00
   1.7690977e+01   2.2037238e+01  -7.3092274e+00
   1.7747739e+01   2.1308479e+01  -7.4944280e+00
   1.7814242e+01   2.1077914e+01  -7.4196224e+00
   1.7774518e+01   2.1144068e+01  -7.1804058e+00
   1.7708014e+01   2.1374633e+01  -7.2552113e+00
   1.7542579e+01   2.0741120e+01  -7.3715959e+00
   1.7698273e+01   2.0876440e+01  -7.5152175e+00
   1.7515800e+01   2.0905531e+01  -7.6856181e+00
   1.7360106e+01   2.0770212e+01  -7.5419965e+00
   1.7449297e+01   2.1136097e+01  -7.7604236e+00
   1.7565266e+01   2.1337571e+01  -7.6648286e+00
   1.7343069e+01   2.1432817e+01  -7.5960126e+00
   1.7227099e+01   2.1231343e+01  -7.6916077e+00
   1.8424072e+01   2.1520935e+01  -7.4408698e+00
   1.8450851e+01   2.1356524e+01  -7.1268476e+00
   1.8384347e+01   2.1587089e+01  -7.2016532e+00
   1.8036439e+01   2.0982668e+01  -7.4884384e+00
   1.8125630e+01   2.1348552e+01  -7.7068655e+00
   1.8241599e+01   2.1550026e+01  -7.6112704e+00
   1.8019402e+01   2.1645272e+01  -7.5424544e+00
   1.7903432e+01   2.1443798e+01  -7.6380495e+00
   1.6687866e+01   1.9796895e+01  -6.9882999e+00
   1.6621362e+01   2.0027460e+01  -7.0631055e+00
   1.7337420e+01   2.0173762e+01  -7.2487639e+00
   1.7403923e+01   1.9943196e+01  -7.1739583e+00
   1.7364199e+01   2.0009351e+01  -6.9347417e+00
   1.7297695e+01   2.0239916e+01  -7.0095473e+00
   1.7132260e+01   1.9606403e+01  -7.1259318e+00
   1.7287954e+01   1.9741722e+01  -7.2695534e+00
   1.7154947e+01   2.0202853e+01  -7.4191645e+00
   1.6932750e+01   2.0298099e+01  -7.3503485e+00
   1.7310640e+01   2.0338173e+01  -7.5627860e+00
   1.7244137e+01   2.0568738e+01  -7.6375916e+00
   1.7974028e+01   2.0452372e+01  -6.9559891e+00
   1.7609083e+01   2.0510555e+01  -7.2967903e+00
   1.7493113e+01   2.0309081e+01  -7.3923854e+00
   1.7920470e+01   2.0781194e+01  -7.5840334e+00
   1.7555524e+01   2.0839377e+01  -7.9248347e+00
   1.8011114e+01   2.2850965e+01  -6.3105985e+00
   1.8686882e+01   2.0998610e+01  -6.3284026e+00
   1.8709569e+01   2.1595060e+01  -6.6216353e+00
   1.8553875e+01   2.1459741e+01  -6.4780138e+00
   1.8643065e+01   2.1825626e+01  -6.6964409e+00
   1.8759035e+01   2.2027100e+01  -6.6008458e+00
   1.8536837e+01   2.2122346e+01  -6.5320298e+00
   1.8420868e+01   2.1920872e+01  -6.6276249e+00
   1.8749293e+01   2.1528906e+01  -6.8608519e+00
   1.8661570e+01   2.2184501e+01  -6.9744686e+00
   1.8930070e+01   2.2090183e+01  -6.7219424e+00
   1.8686876e+01   2.2246594e+01  -6.8055835e+00
   1.8682790e+01   2.1759471e+01  -6.9356575e+00
   1.8858001e+01   2.1837422e+01  -7.1099738e+00
   1.8500317e+01   2.1788563e+01  -7.1060581e+00
   1.8473531e+01   2.2040961e+01  -7.3123592e+00
   1.8611089e+01   2.2192549e+01  -7.0216097e+00
   1.8453923e+01   2.2283734e+01  -7.0231252e+00
   1.8396850e+01   2.2245140e+01  -7.1539823e+00
   1.8540393e+01   2.1658713e+01  -7.5419093e+00
   1.6659440e+01   2.2381160e+01  -7.4435808e+00
   1.6387777e+01   2.2044366e+01  -7.3955543e+00
   1.6543471e+01   2.2179686e+01  -7.5391758e+00
   1.7358618e+01   2.2621227e+01  -7.2243887e+00
   1.7064110e+01   2.2256822e+01  -7.3419961e+00
   1.7230823e+01   2.2400984e+01  -7.4962590e+00
   1.7048351e+01   2.2430075e+01  -7.6666596e+00
   1.6881637e+01   2.2285914e+01  -7.5123967e+00
   1.6971337e+01   2.2648061e+01  -7.7334278e+00
   1.6738120e+01   2.2734465e+01  -7.6539705e+00
   1.6832171e+01   2.1853874e+01  -7.5331862e+00
   1.6765668e+01   2.2084440e+01  -7.6079918e+00
   1.7492745e+01   2.2239583e+01  -7.8042915e+00
   1.7548228e+01   2.2000175e+01  -7.7188447e+00
   1.7508504e+01   2.2066330e+01  -7.4796280e+00
   1.7453020e+01   2.2305738e+01  -7.5650749e+00
   1.7276565e+01   2.1663382e+01  -7.6708182e+00
   1.7432259e+01   2.1798702e+01  -7.8144397e+00
   1.7249786e+01   2.1827793e+01  -7.9848403e+00
   1.7094093e+01   2.1692474e+01  -7.8412188e+00
   1.7310272e+01   2.2268675e+01  -7.9746922e+00
   1.7088075e+01   2.2363921e+01  -7.9058762e+00
   1.8153402e+01   2.2191856e+01  -7.4072491e+00
   1.7952898e+01   2.1875838e+01  -7.6172600e+00
   1.7770426e+01   2.1904929e+01  -7.7876606e+00
   1.7694181e+01   2.1637301e+01  -8.1224723e+00
   1.7760684e+01   2.1406736e+01  -8.0476667e+00
   1.7720960e+01   2.1472890e+01  -7.8084501e+00
   1.7654456e+01   2.1703456e+01  -7.8832557e+00
   1.8303882e+01   2.1780153e+01  -8.0607310e+00
   1.8298111e+01   2.1877267e+01  -7.7086099e+00
   1.7982881e+01   2.1311490e+01  -8.1164827e+00
   1.8050138e+01   2.1702969e+01  -8.4411508e+00
   1.8171890e+01   2.1801196e+01  -8.1839906e+00
   1.7800816e+01   2.1834543e+01  -8.3370860e+00
   1.7866912e+01   2.1110016e+01  -8.2120778e+00
   1.8473882e+01   2.1977266e+01  -7.5089938e+00
   1.7804836e+01   2.3002432e+01  -6.2881660e+00
   1.7667188e+01   2.3036248e+01  -6.3203763e+00
   1.7751845e+01   2.2855746e+01  -6.5882963e+00
   1.7784445e+01   2.2826667e+01  -6.4427869e+00
   1.7673525e+01   2.2873194e+01  -6.4062860e+00
   1.7576246e+01   2.2842639e+01  -6.6780985e+00
   1.7491052e+01   2.2902285e+01  -6.5766866e+00
   1.7432889e+01   2.3081647e+01  -6.5536933e+00
   1.8053416e+01   2.2443379e+01  -6.7010868e+00
   1.7986567e+01   2.2545862e+01  -6.4266214e+00
   1.8083236e+01   2.2632618e+01  -6.5666139e+00
   1.7984207e+01   2.2715206e+01  -6.5416321e+00
   1.7886576e+01   2.2748347e+01  -6.6168100e+00
   1.7704423e+01   2.2512690e+01  -7.0057845e+00
   1.7578984e+01   2.2756284e+01  -6.8298717e+00
   1.7482226e+01   2.2607936e+01  -6.9369685e+00
   1.7531406e+01   2.2651599e+01  -7.1675623e+00
   1.8535933e+01   2.2386702e+01  -6.6713129e+00
   1.8458086e+01   2.2319042e+01  -6.5995021e+00
   1.8613543e+01   2.2306080e+01  -6.7681849e+00
   1.8431070e+01   2.2335172e+01  -6.9385856e+00
   1.8275613e+01   2.2348133e+01  -6.7699028e+00
   1.8353460e+01   2.2415793e+01  -6.8417135e+00
   1.8976489e+01   2.1982926e+01  -6.8826535e+00
   1.8878214e+01   2.2014283e+01  -6.9574458e+00
   1.8767115e+01   2.2061906e+01  -6.9230378e+00
   1.8792422e+01   2.2123999e+01  -6.7541527e+00
   1.8773452e+01   2.1898852e+01  -7.0089475e+00
   1.8915986e+01   2.1938159e+01  -7.0621763e+00
   1.8571469e+01   2.1897325e+01  -7.2563744e+00
   1.8760070e+01   2.1893070e+01  -7.2736797e+00
   1.8675521e+01   2.1954501e+01  -7.1726534e+00
   1.8534506e+01   2.2123337e+01  -7.2294930e+00
   1.8618703e+01   2.2125603e+01  -7.1338847e+00
   1.8335875e+01   2.2162764e+01  -7.2368485e+00
   1.8679928e+01   2.1804368e+01  -7.5224856e+00
   1.8571820e+01   2.1833630e+01  -7.4530090e+00
   1.7334545e+01   2.2568588e+01  -7.3933306e+00
   1.7266462e+01   2.2661617e+01  -7.1188085e+00
   1.7728195e+01   2.2435408e+01  -7.2811047e+00
   1.7556742e+01   2.2473342e+01  -7.4621466e+00
   1.8121401e+01   2.2170865e+01  -7.6546398e+00
   1.8199821e+01   2.2084598e+01  -7.5679602e+00
   1.8082386e+01   2.2295275e+01  -7.4476425e+00
   1.8121415e+01   2.1994891e+01  -7.8700819e+00
   1.8036866e+01   2.2056321e+01  -7.7690556e+00
   1.8115287e+01   2.1970054e+01  -7.6823760e+00
   1.7945637e+01   2.1982880e+01  -7.9619770e+00
   1.7861088e+01   2.2044310e+01  -7.8609507e+00
   1.7804270e+01   2.2215412e+01  -7.8221820e+00
   1.8357920e+01   2.1687805e+01  -7.7123099e+00
   1.8453990e+01   2.1772901e+01  -7.8519442e+00
   1.8264866e+01   2.1904563e+01  -7.8537337e+00
   1.8329188e+01   2.1842246e+01  -7.8918459e+00
   1.8075776e+01   2.1654632e+01  -8.2914729e+00
   1.7949693e+01   2.1896442e+01  -8.1151746e+00
   1.7853578e+01   2.1749878e+01  -8.2226570e+00
   1.8382646e+01   2.1991811e+01  -7.5941941e+00
