   1.2429465e+01   1.4271714e+01  -2.0738092e+00
   1.3470743e+01   1.4425987e+01  -1.6794498e+00
   1.3417185e+01   1.4754809e+01  -2.3074941e+00
   1.3105798e+01   1.4484170e+01  -2.0202510e+00
   1.3284178e+01   1.5215940e+01  -2.4571053e+00
   1.3516117e+01   1.5618887e+01  -2.2659151e+00
   1.2322349e+01   1.4929359e+01  -3.3298979e+00
   1.3773946e+01   1.6218348e+01  -3.1812025e+00
   1.3906953e+01   1.5757217e+01  -3.0315914e+00
   1.3827505e+01   1.5889526e+01  -2.5531582e+00
   1.3363627e+01   1.5083631e+01  -2.9355385e+00
   1.3675015e+01   1.5354270e+01  -3.2227815e+00
   1.3310069e+01   1.5412453e+01  -3.5635828e+00
   1.2998682e+01   1.5141814e+01  -3.2763397e+00
   1.3177062e+01   1.5873584e+01  -3.7131939e+00
   1.3409001e+01   1.6276532e+01  -3.5220038e+00
   1.4662735e+01   1.5837364e+01  -3.4564664e+00
   1.4351347e+01   1.5566725e+01  -3.1692234e+00
   1.4529728e+01   1.6298495e+01  -3.6060776e+00
   1.4085334e+01   1.6488987e+01  -3.4684456e+00
   1.3666830e+01   1.6875992e+01  -4.4372912e+00
   1.3799837e+01   1.6414861e+01  -4.2876801e+00
   1.3720388e+01   1.6547170e+01  -3.8092469e+00
   1.3256511e+01   1.5741275e+01  -4.1916271e+00
   1.3567898e+01   1.6011914e+01  -4.4788702e+00
   1.3301884e+01   1.6934176e+01  -4.7780925e+00
   1.3692720e+01   1.7072506e+01  -5.5437688e+00
   1.3613272e+01   1.7204814e+01  -5.0653356e+00
   1.5019496e+01   1.7300904e+01  -4.3301749e+00
   1.5152503e+01   1.6839773e+01  -4.1805637e+00
   1.4609177e+01   1.6166186e+01  -4.0845108e+00
   1.4920564e+01   1.6436825e+01  -4.3717539e+00
   1.4555619e+01   1.6495008e+01  -4.7125551e+00
   1.4244231e+01   1.6224369e+01  -4.4253120e+00
   1.4422612e+01   1.6956139e+01  -4.8621663e+00
   1.4654550e+01   1.7359087e+01  -4.6709761e+00
   1.4210156e+01   1.7549579e+01  -4.5333442e+00
   1.3978217e+01   1.7146631e+01  -4.7245343e+00
   1.5596897e+01   1.6649280e+01  -4.3181957e+00
   1.5775278e+01   1.7381050e+01  -4.7550499e+00
   1.5330883e+01   1.7571542e+01  -4.6174179e+00
   1.4388537e+01   1.8281349e+01  -4.9701984e+00
   1.5545340e+01   1.8817557e+01  -5.1904937e+00
   1.5207174e+01   1.8711329e+01  -5.2172728e+00
   1.5064870e+01   1.8493804e+01  -4.9166402e+00
   1.5087556e+01   1.9090255e+01  -5.2098729e+00
   1.5425723e+01   1.9196482e+01  -5.1830938e+00
   1.4912380e+01   1.7958548e+01  -5.5862635e+00
   1.5045386e+01   1.7497417e+01  -5.4366524e+00
   1.4965938e+01   1.7629726e+01  -4.9582192e+00
   1.4832931e+01   1.8090857e+01  -5.1078303e+00
   1.4502060e+01   1.6823830e+01  -5.3405995e+00
   1.4813448e+01   1.7094469e+01  -5.6278425e+00
   1.4448502e+01   1.7152652e+01  -5.9686438e+00
   1.4137115e+01   1.6882013e+01  -5.6814007e+00
   1.4315495e+01   1.7613783e+01  -6.1182549e+00
   1.4547434e+01   1.8016731e+01  -5.9270648e+00
   1.4103040e+01   1.8207223e+01  -5.7894329e+00
   1.3871101e+01   1.7804275e+01  -5.9806230e+00
   1.6318159e+01   1.8235099e+01  -5.5613527e+00
   1.5854726e+01   1.7248741e+01  -5.2334831e+00
   1.6166114e+01   1.7519380e+01  -5.5207262e+00
   1.5801168e+01   1.7577563e+01  -5.8615274e+00
   1.5489781e+01   1.7306925e+01  -5.5742844e+00
   1.5668161e+01   1.8038694e+01  -6.0111386e+00
   1.5953214e+01   1.8293282e+01  -5.9021540e+00
   1.5846986e+01   1.8590002e+01  -5.7377429e+00
   1.5624789e+01   1.8685248e+01  -5.6689269e+00
   1.5286622e+01   1.8579020e+01  -5.6957060e+00
   1.5223767e+01   1.8229187e+01  -5.8735066e+00
   1.4752149e+01   1.8764552e+01  -6.7601467e+00
   1.4858377e+01   1.8467832e+01  -6.9245577e+00
   1.4938270e+01   1.8155061e+01  -6.6927411e+00
   1.4858821e+01   1.8287370e+01  -6.2143079e+00
   1.4739204e+01   1.8666295e+01  -6.2069079e+00
   1.4712425e+01   1.8830706e+01  -6.5209301e+00
   1.5935732e+01   1.9136349e+01  -6.6664199e+00
   1.6041960e+01   1.8839629e+01  -6.8308309e+00
   1.6108463e+01   1.8609064e+01  -6.7560254e+00
   1.6135242e+01   1.8444653e+01  -6.4420032e+00
   1.6095518e+01   1.8510807e+01  -6.2027866e+00
   1.5989290e+01   1.8807527e+01  -6.0383755e+00
   1.5922787e+01   1.9038092e+01  -6.1131811e+00
   1.5896008e+01   1.9202503e+01  -6.4272033e+00
   1.5153171e+01   1.9220613e+01  -6.5555670e+00
   1.5491338e+01   1.9326841e+01  -6.5287879e+00
   1.5673811e+01   1.9297750e+01  -6.3583873e+00
   1.5700590e+01   1.9133338e+01  -6.0443651e+00
   1.5544896e+01   1.8998019e+01  -5.9007436e+00
   1.5206729e+01   1.8891791e+01  -5.9275227e+00
   1.5024257e+01   1.8920883e+01  -6.0979233e+00
   1.4997478e+01   1.9085294e+01  -6.4119455e+00
   1.5747610e+01   1.7906386e+01  -6.4895718e+00
   1.6072387e+01   1.8094819e+01  -6.6198038e+00
   1.6045608e+01   1.8259230e+01  -6.9338259e+00
   1.5863135e+01   1.8288321e+01  -7.1042266e+00
   1.5524968e+01   1.8182094e+01  -7.1310057e+00
   1.5382664e+01   1.7964569e+01  -6.8303730e+00
   1.5405351e+01   1.8561019e+01  -7.1236057e+00
   1.5743518e+01   1.8667247e+01  -7.0968266e+00
   1.5859487e+01   1.8868721e+01  -7.0012315e+00
   1.5753259e+01   1.9165441e+01  -6.8368205e+00
   1.5531062e+01   1.9260687e+01  -6.7680045e+00
   1.5192896e+01   1.9154459e+01  -6.7947836e+00
   1.5076926e+01   1.8952985e+01  -6.8903787e+00
   1.5183154e+01   1.8656265e+01  -7.0547897e+00
   1.3060424e+01   1.3291269e+01  -1.4337857e+00
   1.3180042e+01   1.2912344e+01  -1.4411857e+00
   1.2980976e+01   1.3423578e+01  -9.5535250e-01
   1.2294457e+01   1.2893391e+01  -1.9791666e+00
   1.2632623e+01   1.2999619e+01  -1.9523876e+00
   1.2695479e+01   1.3349452e+01  -1.7745870e+00
   1.2251084e+01   1.3539945e+01  -1.6369550e+00
   1.1966032e+01   1.3285357e+01  -1.7459396e+00
   1.3949213e+01   1.2910285e+01  -1.7090496e+00
   1.3624436e+01   1.2721852e+01  -1.5788176e+00
   1.3816206e+01   1.3371416e+01  -1.8586607e+00
   1.3371812e+01   1.3561908e+01  -1.7210288e+00
   1.1707314e+01   1.3046820e+01  -2.2511519e+00
   1.1601086e+01   1.3343540e+01  -2.0867409e+00
   1.2953308e+01   1.3948913e+01  -2.6898744e+00
   1.3086315e+01   1.3487782e+01  -2.5402633e+00
   1.3006866e+01   1.3620091e+01  -2.0618300e+00
   1.2873859e+01   1.4081222e+01  -2.2114412e+00
   1.2373905e+01   1.2761082e+01  -2.4575999e+00
   1.2712072e+01   1.2867310e+01  -2.4308208e+00
   1.2854376e+01   1.3084835e+01  -2.7314534e+00
   1.2191433e+01   1.2790174e+01  -2.6280005e+00
   1.2588362e+01   1.4007097e+01  -3.0306756e+00
   1.2143968e+01   1.4197589e+01  -2.8930437e+00
   1.4305974e+01   1.4373824e+01  -2.5827580e+00
   1.4438981e+01   1.3912694e+01  -2.4331469e+00
   1.3895655e+01   1.3239107e+01  -2.3370939e+00
   1.4207042e+01   1.3509746e+01  -2.6243370e+00
   1.3842096e+01   1.3567929e+01  -2.9651383e+00
   1.3530709e+01   1.3297290e+01  -2.6778952e+00
   1.3709090e+01   1.4029060e+01  -3.1147494e+00
   1.3941028e+01   1.4432008e+01  -2.9235593e+00
   1.3496634e+01   1.4622500e+01  -2.7859273e+00
   1.3264695e+01   1.4219552e+01  -2.9771175e+00
   1.3378663e+01   1.2581572e+01  -2.6372687e+00
   1.3298770e+01   1.2894343e+01  -2.8690853e+00
   1.2493523e+01   1.2382157e+01  -2.4649998e+00
   1.2831689e+01   1.2488384e+01  -2.4382207e+00
   1.3053886e+01   1.2393138e+01  -2.5070367e+00
   1.2979198e+01   1.4145427e+01  -3.7963519e+00
   1.2899750e+01   1.4277735e+01  -3.3179187e+00
   1.2766743e+01   1.4738866e+01  -3.4675299e+00
   1.4198857e+01   1.5031469e+01  -3.8388467e+00
   1.4331864e+01   1.4570338e+01  -3.6892356e+00
   1.4252416e+01   1.4702647e+01  -3.2108024e+00
   1.4119409e+01   1.5163778e+01  -3.3604135e+00
   1.3788538e+01   1.3896751e+01  -3.5931826e+00
   1.4099926e+01   1.4167390e+01  -3.8804257e+00
   1.3734980e+01   1.4225573e+01  -4.2212270e+00
   1.3423593e+01   1.3954934e+01  -3.9339839e+00
   1.3601973e+01   1.4686704e+01  -4.3708381e+00
   1.3833912e+01   1.5089652e+01  -4.1796480e+00
   1.3389518e+01   1.5280144e+01  -4.0420160e+00
   1.3157579e+01   1.4877196e+01  -4.2332061e+00
   1.4617361e+01   1.4644463e+01  -2.8700011e+00
   1.5186578e+01   1.5514563e+01  -4.0725316e+00
   1.4742184e+01   1.5705055e+01  -3.9348996e+00
   1.4510245e+01   1.5302107e+01  -4.1260898e+00
   1.4091741e+01   1.5689113e+01  -5.0949354e+00
   1.4224748e+01   1.5227982e+01  -4.9453242e+00
   1.4145299e+01   1.5360291e+01  -4.4668910e+00
   1.4012292e+01   1.5821422e+01  -4.6165022e+00
   1.5364958e+01   1.6246333e+01  -4.5093858e+00
   1.5079461e+01   1.6172207e+01  -5.3286203e+00
   1.4635067e+01   1.6362699e+01  -5.1909883e+00
   1.4403128e+01   1.5959752e+01  -5.3821785e+00
   1.5257842e+01   1.6903977e+01  -5.7654745e+00
   1.5617807e+01   1.7967579e+01  -7.4524278e+00
   1.5435020e+01   1.9875138e+01  -5.6333375e+00
   1.5203081e+01   1.9472191e+01  -5.8245277e+00
   1.5269585e+01   1.9241625e+01  -5.7497221e+00
   1.5229861e+01   1.9307780e+01  -5.5105055e+00
   1.5163357e+01   1.9538345e+01  -5.5853111e+00
   1.5049212e+01   1.9046672e+01  -5.7324036e+00
   1.4866739e+01   1.9075763e+01  -5.9028043e+00
   1.5009487e+01   1.9112826e+01  -5.4931870e+00
   1.4904639e+01   1.9299808e+01  -6.0905234e+00
   1.5020609e+01   1.9501282e+01  -5.9949283e+00
   1.5879414e+01   1.9684646e+01  -5.7709695e+00
   1.5945918e+01   1.9454081e+01  -5.6961639e+00
   1.5712155e+01   1.9341333e+01  -5.8358565e+00
   1.5556461e+01   1.9206013e+01  -5.6922350e+00
   1.5516737e+01   1.9272168e+01  -5.4530184e+00
   1.5580972e+01   1.9512264e+01  -6.0369652e+00
   1.5696942e+01   1.9713738e+01  -5.9413701e+00
   1.5474744e+01   1.9808984e+01  -5.8725541e+00
   1.5358775e+01   1.9607510e+01  -5.9681492e+00
   1.5563935e+01   2.0174869e+01  -6.0909812e+00
   1.5149523e+01   1.9801013e+01  -6.4525720e+00
   1.5216027e+01   1.9570447e+01  -6.3777664e+00
   1.5176302e+01   1.9636602e+01  -6.1385498e+00
   1.4982264e+01   1.9457699e+01  -6.5174591e+00
   1.4826570e+01   1.9322380e+01  -6.3738375e+00
   1.4851081e+01   1.9628630e+01  -6.7185677e+00
   1.4967050e+01   1.9830104e+01  -6.6229726e+00
   1.5825856e+01   2.0013468e+01  -6.3990138e+00
   1.5892360e+01   1.9782903e+01  -6.3242083e+00
   1.5852635e+01   1.9849057e+01  -6.0849917e+00
   1.5786132e+01   2.0079623e+01  -6.1597972e+00
   1.5671987e+01   1.9587949e+01  -6.3068898e+00
   1.5489514e+01   1.9617041e+01  -6.4772904e+00
   1.5527414e+01   1.9841086e+01  -6.6650095e+00
   1.5643383e+01   2.0042560e+01  -6.5694145e+00
   1.5421186e+01   2.0137806e+01  -6.5005985e+00
   1.5305217e+01   1.9936332e+01  -6.5961935e+00
   1.5510377e+01   2.0503691e+01  -6.7190256e+00
   1.5095965e+01   2.0129835e+01  -7.0806163e+00
   1.5162469e+01   1.9899269e+01  -7.0058108e+00
   1.5122744e+01   1.9965424e+01  -6.7665942e+00
   1.4890805e+01   1.9562476e+01  -6.9577843e+00
   1.5046499e+01   1.9697795e+01  -7.1014058e+00
   1.4864026e+01   1.9726887e+01  -7.2718065e+00
   1.4708333e+01   1.9591568e+01  -7.1281849e+00
   1.4797523e+01   1.9957452e+01  -7.3466120e+00
   1.4913492e+01   2.0158926e+01  -7.2510170e+00
   1.5772298e+01   2.0342290e+01  -7.0270582e+00
   1.5838801e+01   2.0111725e+01  -6.9522526e+00
   1.5799077e+01   2.0177879e+01  -6.7130360e+00
   1.5732574e+01   2.0408445e+01  -6.7878416e+00
   1.5567138e+01   1.9774932e+01  -6.9042261e+00
   1.5722832e+01   1.9910251e+01  -7.0478477e+00
   1.5540359e+01   1.9939343e+01  -7.2182483e+00
   1.5384666e+01   1.9804023e+01  -7.0746268e+00
   1.5473856e+01   2.0169908e+01  -7.2930539e+00
   1.5589825e+01   2.0371382e+01  -7.1974588e+00
   1.5367628e+01   2.0466628e+01  -7.1286428e+00
   1.5251659e+01   2.0265154e+01  -7.2242379e+00
   1.5456818e+01   2.0832513e+01  -7.3470699e+00
   1.5042407e+01   2.0458657e+01  -7.7086607e+00
   1.5108910e+01   2.0228091e+01  -7.6338551e+00
   1.5069186e+01   2.0294246e+01  -7.3946385e+00
   1.4992941e+01   2.0026617e+01  -7.7294502e+00
   1.5718740e+01   2.0671112e+01  -7.6551025e+00
   1.5785243e+01   2.0440547e+01  -7.5802969e+00
   1.5745519e+01   2.0506701e+01  -7.3410803e+00
   1.5679016e+01   2.0737267e+01  -7.4158859e+00
   1.5513580e+01   2.0103754e+01  -7.5322705e+00
   1.5669274e+01   2.0239073e+01  -7.6758920e+00
   1.5486801e+01   2.0268165e+01  -7.8462926e+00
   1.5331107e+01   2.0132845e+01  -7.7026711e+00
   1.5420298e+01   2.0498730e+01  -7.9210982e+00
   1.5536267e+01   2.0700204e+01  -7.8255031e+00
   1.5314070e+01   2.0795450e+01  -7.7566872e+00
   1.5198101e+01   2.0593976e+01  -7.8522822e+00
   1.5308421e+01   1.9536395e+01  -7.4094384e+00
   1.5374924e+01   1.9305829e+01  -7.3346329e+00
   1.5335200e+01   1.9371984e+01  -7.0954163e+00
   1.5268696e+01   1.9602549e+01  -7.1702218e+00
   1.5103261e+01   1.8969036e+01  -7.2866064e+00
   1.5258955e+01   1.9104356e+01  -7.4302279e+00
   1.5061713e+01   1.9325390e+01  -6.9958923e+00
   1.4945743e+01   1.9123916e+01  -7.0914873e+00
   1.5125948e+01   1.9565487e+01  -7.5798391e+00
   1.4903751e+01   1.9660733e+01  -7.5110231e+00
   1.5984754e+01   1.9748850e+01  -7.3558802e+00
   1.6051257e+01   1.9518285e+01  -7.2810747e+00
   1.6011533e+01   1.9584439e+01  -7.0418581e+00
   1.5945029e+01   1.9815005e+01  -7.1166636e+00
   1.5779594e+01   1.9181492e+01  -7.2330482e+00
   1.5935288e+01   1.9316811e+01  -7.3766697e+00
   1.5752815e+01   1.9345903e+01  -7.5470704e+00
   1.5597121e+01   1.9210583e+01  -7.4034488e+00
   1.5791160e+01   1.9389486e+01  -7.0245396e+00
   1.5568962e+01   1.9484732e+01  -6.9557236e+00
   1.5686311e+01   1.9576468e+01  -7.6218759e+00
   1.5802281e+01   1.9777942e+01  -7.5262809e+00
   1.5580084e+01   1.9873188e+01  -7.4574649e+00
   1.5464114e+01   1.9671714e+01  -7.5530600e+00
   1.5520876e+01   1.8942955e+01  -7.7382605e+00
   1.5587380e+01   1.8712390e+01  -7.6634549e+00
   1.5547655e+01   1.8778544e+01  -7.4242383e+00
   1.5481152e+01   1.9009110e+01  -7.4990439e+00
   1.5327282e+01   1.8583590e+01  -7.4069199e+00
   1.5105085e+01   1.8678837e+01  -7.3381039e+00
   1.6197209e+01   1.9155411e+01  -7.6847023e+00
   1.6263713e+01   1.8924845e+01  -7.6098967e+00
   1.6223988e+01   1.8991000e+01  -7.3706801e+00
   1.6157485e+01   1.9221565e+01  -7.4454857e+00
   1.5992050e+01   1.8588052e+01  -7.5618703e+00
   1.6147743e+01   1.8723371e+01  -7.7054918e+00
   1.5965270e+01   1.8752463e+01  -7.8758924e+00
   1.5809577e+01   1.8617144e+01  -7.7322709e+00
   1.5950501e+01   1.8944406e+01  -7.2711562e+00
   1.5834532e+01   1.8742932e+01  -7.3667512e+00
   1.5898767e+01   1.8983028e+01  -7.9506980e+00
   1.6014736e+01   1.9184502e+01  -7.8551029e+00
   1.5792539e+01   1.9279748e+01  -7.7862870e+00
   1.5676570e+01   1.9078275e+01  -7.8818820e+00
   1.5281642e+01   1.9700806e+01  -7.7234606e+00
   1.5215138e+01   1.9931371e+01  -7.7982662e+00
   1.5931195e+01   2.0077673e+01  -7.9839246e+00
   1.5997699e+01   1.9847107e+01  -7.9091190e+00
   1.5957975e+01   1.9913262e+01  -7.6699024e+00
   1.5891471e+01   2.0143827e+01  -7.7447080e+00
   1.5726036e+01   1.9510314e+01  -7.8610925e+00
   1.5881730e+01   1.9645633e+01  -8.0047141e+00
   1.5699257e+01   1.9674725e+01  -8.1751147e+00
   1.5543563e+01   1.9539405e+01  -8.0314932e+00
   1.5632753e+01   1.9905290e+01  -8.2499203e+00
   1.5748723e+01   2.0106764e+01  -8.1543252e+00
   1.5526526e+01   2.0202010e+01  -8.0855092e+00
   1.6143651e+01   1.9484233e+01  -8.3127467e+00
   1.6210154e+01   1.9253667e+01  -8.2379411e+00
   1.6170430e+01   1.9319822e+01  -7.9987245e+00
   1.6103927e+01   1.9550387e+01  -8.0735301e+00
   1.6035108e+01   1.9819966e+01  -5.9145910e+00
   1.6057795e+01   2.0416416e+01  -6.2078237e+00
   1.5902101e+01   2.0281096e+01  -6.0642022e+00
   1.5991291e+01   2.0646981e+01  -6.2826293e+00
   1.6297030e+01   1.9658565e+01  -6.2226236e+00
   1.6452723e+01   1.9793884e+01  -6.3662451e+00
   1.6270250e+01   1.9822976e+01  -6.5366458e+00
   1.6114557e+01   1.9687657e+01  -6.3930242e+00
   1.6203747e+01   2.0053542e+01  -6.6114513e+00
   1.6319716e+01   2.0255015e+01  -6.5158563e+00
   1.6097519e+01   2.0350261e+01  -6.4470403e+00
   1.5981550e+01   2.0148788e+01  -6.5426354e+00
   1.6223053e+01   1.8920275e+01  -5.8986829e+00
   1.6156549e+01   1.9150840e+01  -5.9734885e+00
   1.6563043e+01   1.8736303e+01  -5.9234013e+00
   1.6718737e+01   1.8871623e+01  -6.0670229e+00
   1.6536264e+01   1.8900714e+01  -6.2374235e+00
   1.6380571e+01   1.8765395e+01  -6.0938020e+00
   1.6469761e+01   1.9131280e+01  -6.3122291e+00
   1.6585730e+01   1.9332754e+01  -6.2166340e+00
   1.6363533e+01   1.9428000e+01  -6.1478180e+00
   1.6247564e+01   1.9226526e+01  -6.2434131e+00
   1.6422119e+01   1.8409041e+01  -6.3845161e+00
   1.6382395e+01   1.8475195e+01  -6.1452995e+00
   1.6564867e+01   1.8446104e+01  -5.9748988e+00
   1.6798186e+01   1.8739314e+01  -6.5454561e+00
   1.6575989e+01   1.8834560e+01  -6.4766401e+00
   1.6460019e+01   1.8633086e+01  -6.5722352e+00
   1.6156105e+01   1.9331303e+01  -6.6837383e+00
   1.6116381e+01   1.9397457e+01  -6.4445217e+00
   1.6714645e+01   1.9632484e+01  -6.6742777e+00
   1.6781148e+01   1.9401918e+01  -6.5994721e+00
   1.6741424e+01   1.9468073e+01  -6.3602555e+00
   1.6674920e+01   1.9698638e+01  -6.4350611e+00
   1.6509485e+01   1.9065125e+01  -6.5514457e+00
   1.6665179e+01   1.9200445e+01  -6.6950672e+00
   1.6482706e+01   1.9229536e+01  -6.8654678e+00
   1.6327012e+01   1.9094217e+01  -6.7218463e+00
   1.6416203e+01   1.9460102e+01  -6.9402734e+00
   1.6532172e+01   1.9661576e+01  -6.8446783e+00
   1.6309975e+01   1.9756822e+01  -6.7758624e+00
   1.6194005e+01   1.9555348e+01  -6.8714574e+00
   1.7159039e+01   1.9441992e+01  -6.8119097e+00
   1.7003345e+01   1.9306672e+01  -6.6682881e+00
   1.7092536e+01   1.9672557e+01  -6.8867152e+00
   1.6986308e+01   1.9969277e+01  -6.7223042e+00
   1.6870338e+01   1.9767803e+01  -6.8178993e+00
   1.6381950e+01   1.8655657e+01  -6.8555493e+00
   1.6315447e+01   1.8886223e+01  -6.9303549e+00
   1.6887376e+01   1.9105199e+01  -6.7638832e+00
   1.6744628e+01   1.9068136e+01  -7.1735004e+00
   1.6522430e+01   1.9163382e+01  -7.1046844e+00
   1.6406461e+01   1.8961908e+01  -7.2002795e+00
   1.6236175e+01   2.1148186e+01  -6.6446779e+00
   1.6302679e+01   2.0917620e+01  -6.5698723e+00
   1.6031016e+01   2.0580827e+01  -6.5218459e+00
   1.6186710e+01   2.0716146e+01  -6.6654674e+00
   1.6004237e+01   2.0745238e+01  -6.8358680e+00
   1.5848543e+01   2.0609919e+01  -6.6922465e+00
   1.5937733e+01   2.0975803e+01  -6.9106736e+00
   1.6053703e+01   2.1177277e+01  -6.8150785e+00
   1.6524876e+01   2.0822374e+01  -6.6386883e+00
   1.6614066e+01   2.1188259e+01  -6.8571154e+00
   1.6391869e+01   2.1283505e+01  -6.7882994e+00
   1.6448631e+01   2.0554746e+01  -6.9735000e+00
   1.6515134e+01   2.0324180e+01  -6.8986944e+00
   1.6475410e+01   2.0390335e+01  -6.6594778e+00
   1.6408907e+01   2.0620900e+01  -6.7342834e+00
   1.6243471e+01   1.9987387e+01  -6.8506679e+00
   1.6399165e+01   2.0122707e+01  -6.9942895e+00
   1.6216692e+01   2.0151798e+01  -7.1646901e+00
   1.6060999e+01   2.0016479e+01  -7.0210686e+00
   1.6150189e+01   2.0382364e+01  -7.2394957e+00
   1.6266158e+01   2.0583837e+01  -7.1439006e+00
   1.6043961e+01   2.0679084e+01  -7.0750846e+00
   1.5927992e+01   2.0477610e+01  -7.1706797e+00
   1.6919804e+01   2.0199843e+01  -6.7971098e+00
   1.7075498e+01   2.0335162e+01  -6.9407313e+00
   1.6893025e+01   2.0364254e+01  -7.1111319e+00
   1.6737332e+01   2.0228934e+01  -6.9675104e+00
   1.6826522e+01   2.0594819e+01  -7.1859375e+00
   1.6942491e+01   2.0796293e+01  -7.0903424e+00
   1.6720294e+01   2.0891539e+01  -7.0215265e+00
   1.6604325e+01   2.0690065e+01  -7.1171215e+00
   1.6182617e+01   2.1477008e+01  -7.2727222e+00
   1.6249121e+01   2.1246442e+01  -7.1979167e+00
   1.6209396e+01   2.1312597e+01  -6.9587001e+00
   1.5977458e+01   2.0909649e+01  -7.1498902e+00
   1.6133151e+01   2.1044968e+01  -7.2935117e+00
   1.5950679e+01   2.1074060e+01  -7.4639124e+00
   1.5794985e+01   2.0938741e+01  -7.3202908e+00
   1.5884175e+01   2.1304626e+01  -7.5387179e+00
   1.6000144e+01   2.1506099e+01  -7.4431229e+00
   1.6653791e+01   2.1122105e+01  -7.0963320e+00
   1.6809484e+01   2.1257424e+01  -7.2399536e+00
   1.6627012e+01   2.1286516e+01  -7.4103542e+00
   1.6471318e+01   2.1151196e+01  -7.2667327e+00
   1.6560508e+01   2.1517081e+01  -7.4851598e+00
   1.6676477e+01   2.1718555e+01  -7.3895647e+00
   1.6454280e+01   2.1813801e+01  -7.3207487e+00
   1.6338311e+01   2.1612327e+01  -7.4163438e+00
   1.6395073e+01   2.0883568e+01  -7.6015443e+00
   1.6461576e+01   2.0653002e+01  -7.5267388e+00
   1.6421852e+01   2.0719157e+01  -7.2875221e+00
   1.6355348e+01   2.0949722e+01  -7.3623277e+00
   1.6189913e+01   2.0316209e+01  -7.4787123e+00
   1.6345607e+01   2.0451529e+01  -7.6223338e+00
   1.6163134e+01   2.0480620e+01  -7.7927344e+00
   1.6007440e+01   2.0345301e+01  -7.6491129e+00
   1.6096631e+01   2.0711186e+01  -7.8675400e+00
   1.6212600e+01   2.0912660e+01  -7.7719450e+00
   1.5990403e+01   2.1007906e+01  -7.7031290e+00
   1.5874434e+01   2.0806432e+01  -7.7987240e+00
   1.7071406e+01   2.1096023e+01  -7.5479861e+00
   1.7137909e+01   2.0865458e+01  -7.4731806e+00
   1.7098185e+01   2.0931612e+01  -7.2339640e+00
   1.7031681e+01   2.1162178e+01  -7.3087695e+00
   1.6866246e+01   2.0528665e+01  -7.4251541e+00
   1.7021940e+01   2.0663984e+01  -7.5687756e+00
   1.6839467e+01   2.0693076e+01  -7.7391763e+00
   1.6683773e+01   2.0557756e+01  -7.5955547e+00
   1.6772964e+01   2.0923641e+01  -7.8139818e+00
   1.6888933e+01   2.1125115e+01  -7.7183868e+00
   1.6666736e+01   2.1220361e+01  -7.6495708e+00
   1.6550767e+01   2.1018887e+01  -7.7451659e+00
   1.7515800e+01   2.0905531e+01  -7.6856181e+00
   1.7360106e+01   2.0770212e+01  -7.5419965e+00
   1.7449297e+01   2.1136097e+01  -7.7604236e+00
   1.7343069e+01   2.1432817e+01  -7.5960126e+00
   1.7227099e+01   2.1231343e+01  -7.6916077e+00
   1.6661087e+01   1.9961306e+01  -7.3023221e+00
   1.6727590e+01   1.9730741e+01  -7.2275165e+00
   1.6687866e+01   1.9796895e+01  -6.9882999e+00
   1.6621362e+01   2.0027460e+01  -7.0631055e+00
   1.6455927e+01   1.9393947e+01  -7.1794900e+00
   1.6611621e+01   1.9529267e+01  -7.3231116e+00
   1.6429148e+01   1.9558358e+01  -7.4935122e+00
   1.6273454e+01   1.9423039e+01  -7.3498906e+00
   1.6362644e+01   1.9788924e+01  -7.5683178e+00
   1.6478614e+01   1.9990398e+01  -7.4727227e+00
   1.6256417e+01   2.0085644e+01  -7.4039067e+00
   1.6140447e+01   1.9884170e+01  -7.4995018e+00
   1.7337420e+01   2.0173762e+01  -7.2487639e+00
   1.7403923e+01   1.9943196e+01  -7.1739583e+00
   1.7132260e+01   1.9606403e+01  -7.1259318e+00
   1.7287954e+01   1.9741722e+01  -7.2695534e+00
   1.7105481e+01   1.9770814e+01  -7.4399540e+00
   1.6949787e+01   1.9635494e+01  -7.2963325e+00
   1.7038977e+01   2.0001379e+01  -7.5147596e+00
   1.7154947e+01   2.0202853e+01  -7.4191645e+00
   1.6932750e+01   2.0298099e+01  -7.3503485e+00
   1.6816780e+01   2.0096625e+01  -7.4459436e+00
   1.6833818e+01   1.9434021e+01  -7.3919275e+00
   1.6691069e+01   1.9396958e+01  -7.8015448e+00
   1.6468872e+01   1.9492204e+01  -7.7327288e+00
   1.6352903e+01   1.9290730e+01  -7.8283239e+00
   1.6607528e+01   2.0290128e+01  -7.9303664e+00
   1.6674032e+01   2.0059563e+01  -7.8555608e+00
   1.6634307e+01   2.0125717e+01  -7.6163442e+00
   1.6567804e+01   2.0356283e+01  -7.6911498e+00
   1.6402369e+01   1.9722769e+01  -7.8075344e+00
   1.6558062e+01   1.9858089e+01  -7.9511559e+00
   1.6375590e+01   1.9887180e+01  -8.1215565e+00
   1.6219896e+01   1.9751861e+01  -7.9779350e+00
   1.6309086e+01   2.0117746e+01  -8.1963621e+00
   1.6425056e+01   2.0319220e+01  -8.1007670e+00
   1.6202858e+01   2.0414466e+01  -8.0319511e+00
   1.6086889e+01   2.0212992e+01  -8.1275461e+00
   1.7283861e+01   2.0502584e+01  -7.8768082e+00
   1.7350365e+01   2.0272018e+01  -7.8020026e+00
   1.7310640e+01   2.0338173e+01  -7.5627860e+00
   1.7244137e+01   2.0568738e+01  -7.6375916e+00
   1.7078702e+01   1.9935225e+01  -7.7539762e+00
   1.7234395e+01   2.0070544e+01  -7.8975977e+00
   1.7051923e+01   2.0099636e+01  -8.0679983e+00
   1.6896229e+01   1.9964317e+01  -7.9243768e+00
   1.6985419e+01   2.0330201e+01  -8.1428039e+00
   1.7101389e+01   2.0531675e+01  -8.0472088e+00
   1.6879191e+01   2.0626921e+01  -7.9783929e+00
   1.6763222e+01   2.0425448e+01  -8.0739879e+00
   1.6780260e+01   1.9762843e+01  -8.0199719e+00
   1.6637511e+01   1.9725780e+01  -8.4295891e+00
   1.6415314e+01   1.9821026e+01  -8.3607731e+00
   1.6299345e+01   1.9619552e+01  -8.4563682e+00
   1.7493113e+01   2.0309081e+01  -7.3923854e+00
   1.7777722e+01   2.0744131e+01  -7.9936507e+00
   1.7555524e+01   2.0839377e+01  -7.9248347e+00
   1.7439555e+01   2.0637903e+01  -8.0204298e+00
   1.6543471e+01   2.2179686e+01  -7.5391758e+00
   1.6489912e+01   2.2508508e+01  -8.1672202e+00
   1.6881637e+01   2.2285914e+01  -7.5123967e+00
   1.6971337e+01   2.2648061e+01  -7.7334278e+00
   1.7011061e+01   2.2581907e+01  -7.9726444e+00
   1.6817569e+01   2.2602156e+01  -8.1324037e+00
   1.5403260e+01   2.1161335e+01  -7.9751143e+00
   1.5665182e+01   2.0999934e+01  -8.2831468e+00
   1.5731685e+01   2.0769369e+01  -8.2083413e+00
   1.5691961e+01   2.0835523e+01  -7.9691247e+00
   1.5625457e+01   2.1066089e+01  -8.0439302e+00
   1.5460022e+01   2.0432576e+01  -8.1603148e+00
   1.5615716e+01   2.0567895e+01  -8.3039363e+00
   1.5482709e+01   2.1029026e+01  -8.4535475e+00
   1.5260512e+01   2.1124272e+01  -8.3847315e+00
   1.5349702e+01   2.1490157e+01  -8.6031586e+00
   1.5638403e+01   2.1164345e+01  -8.5971690e+00
   1.5571899e+01   2.1394911e+01  -8.6719746e+00
   1.5877637e+01   2.0406495e+01  -8.6119689e+00
   1.5944141e+01   2.0175929e+01  -8.5371634e+00
   1.5904416e+01   2.0242084e+01  -8.2979467e+00
   1.5837913e+01   2.0472649e+01  -8.3727523e+00
   1.6129059e+01   2.1805830e+01  -7.9007666e+00
   1.6195563e+01   2.1575264e+01  -7.8259610e+00
   1.6155838e+01   2.1641419e+01  -7.5867444e+00
   1.5923899e+01   2.1238471e+01  -7.7779345e+00
   1.6079593e+01   2.1373790e+01  -7.9215561e+00
   1.5897120e+01   2.1402882e+01  -8.0919567e+00
   1.5741427e+01   2.1267563e+01  -7.9483352e+00
   1.5830617e+01   2.1633448e+01  -8.1667623e+00
   1.5946586e+01   2.1834921e+01  -8.0711672e+00
   1.6805392e+01   2.2018285e+01  -7.8472084e+00
   1.6871895e+01   2.1787720e+01  -7.7724028e+00
   1.6832171e+01   2.1853874e+01  -7.5331862e+00
   1.6765668e+01   2.2084440e+01  -7.6079918e+00
   1.6600232e+01   2.1450927e+01  -7.7243764e+00
   1.6755926e+01   2.1586246e+01  -7.8679979e+00
   1.6573453e+01   2.1615338e+01  -8.0383985e+00
   1.6417760e+01   2.1480018e+01  -7.8947770e+00
   1.6506950e+01   2.1845903e+01  -8.1132041e+00
   1.6622919e+01   2.2047377e+01  -8.0176090e+00
   1.6400722e+01   2.2142623e+01  -7.9487931e+00
   1.6284753e+01   2.1941149e+01  -8.0443881e+00
   1.6341515e+01   2.1212390e+01  -8.2295887e+00
   1.6408018e+01   2.0981825e+01  -8.1547831e+00
   1.6368294e+01   2.1047979e+01  -7.9155665e+00
   1.6301790e+01   2.1278544e+01  -7.9903721e+00
   1.6136355e+01   2.0645031e+01  -8.1067566e+00
   1.6292049e+01   2.0780351e+01  -8.2503782e+00
   1.6109576e+01   2.0809442e+01  -8.4207788e+00
   1.5953882e+01   2.0674123e+01  -8.2771572e+00
   1.6043073e+01   2.1040008e+01  -8.4955844e+00
   1.6159042e+01   2.1241482e+01  -8.3999893e+00
   1.5936845e+01   2.1336728e+01  -8.3311733e+00
   1.5820875e+01   2.1135254e+01  -8.4267684e+00
   1.7017848e+01   2.1424846e+01  -8.1760305e+00
   1.7084351e+01   2.1194280e+01  -8.1012249e+00
   1.7044627e+01   2.1260435e+01  -7.8620083e+00
   1.6978123e+01   2.1491000e+01  -7.9368139e+00
   1.6812688e+01   2.0857487e+01  -8.0531984e+00
   1.6968382e+01   2.0992806e+01  -8.1968200e+00
   1.6785909e+01   2.1021898e+01  -8.3672206e+00
   1.6630215e+01   2.0886578e+01  -8.2235991e+00
   1.6719405e+01   2.1252463e+01  -8.4420262e+00
   1.6835375e+01   2.1453937e+01  -8.3464311e+00
   1.6613178e+01   2.1549183e+01  -8.2776151e+00
   1.6497208e+01   2.1347709e+01  -8.3732102e+00
   1.6075501e+01   2.2134652e+01  -8.5288109e+00
   1.6142004e+01   2.1904086e+01  -8.4540054e+00
   1.6102280e+01   2.1970241e+01  -8.2147888e+00
   1.5870341e+01   2.1567293e+01  -8.4059789e+00
   1.6026035e+01   2.1702613e+01  -8.5496004e+00
   1.5843562e+01   2.1731704e+01  -8.7200011e+00
   1.5687868e+01   2.1596385e+01  -8.5763795e+00
   1.5777059e+01   2.1962270e+01  -8.7948066e+00
   1.5893028e+01   2.2163743e+01  -8.6992116e+00
   1.6751834e+01   2.2347107e+01  -8.4752527e+00
   1.6818337e+01   2.2116542e+01  -8.4004472e+00
   1.6778613e+01   2.2182696e+01  -8.1612306e+00
   1.6712110e+01   2.2413262e+01  -8.2360361e+00
   1.6546674e+01   2.1779749e+01  -8.3524207e+00
   1.6702368e+01   2.1915068e+01  -8.4960422e+00
   1.6519895e+01   2.1944160e+01  -8.6664429e+00
   1.6364201e+01   2.1808840e+01  -8.5228213e+00
   1.6453392e+01   2.2174725e+01  -8.7412484e+00
   1.6569361e+01   2.2376199e+01  -8.6456534e+00
   1.6347164e+01   2.2471445e+01  -8.5768374e+00
   1.6231195e+01   2.2269971e+01  -8.6724325e+00
   1.6287956e+01   2.1541212e+01  -8.8576330e+00
   1.6354460e+01   2.1310647e+01  -8.7828274e+00
   1.6314736e+01   2.1376801e+01  -8.5436108e+00
   1.6248232e+01   2.1607366e+01  -8.6184164e+00
   1.6082797e+01   2.0973853e+01  -8.7348010e+00
   1.6238491e+01   2.1109173e+01  -8.8784225e+00
   1.6056018e+01   2.1138264e+01  -9.0488231e+00
   1.6105484e+01   2.1570304e+01  -9.0280336e+00
   1.5883287e+01   2.1665550e+01  -8.9592177e+00
   1.6964289e+01   2.1753668e+01  -8.8040748e+00
   1.7030793e+01   2.1523102e+01  -8.7292692e+00
   1.6991069e+01   2.1589257e+01  -8.4900526e+00
   1.6924565e+01   2.1819822e+01  -8.5648582e+00
   1.6759130e+01   2.1186309e+01  -8.6812428e+00
   1.6914824e+01   2.1321628e+01  -8.8248643e+00
   1.6732351e+01   2.1350720e+01  -8.9952649e+00
   1.6576657e+01   2.1215401e+01  -8.8516434e+00
   1.6665847e+01   2.1581285e+01  -9.0700705e+00
   1.6781817e+01   2.1782759e+01  -8.9744754e+00
   1.6559620e+01   2.1878005e+01  -8.9056595e+00
   1.6443650e+01   2.1676531e+01  -9.0012545e+00
   1.7276565e+01   2.1663382e+01  -7.6708182e+00
   1.7432259e+01   2.1798702e+01  -7.8144397e+00
   1.7249786e+01   2.1827793e+01  -7.9848403e+00
   1.7094093e+01   2.1692474e+01  -7.8412188e+00
   1.7183283e+01   2.2058359e+01  -8.0596459e+00
   1.7310272e+01   2.2268675e+01  -7.9746922e+00
   1.7088075e+01   2.2363921e+01  -7.9058762e+00
   1.6961086e+01   2.2153605e+01  -7.9908299e+00
   1.7694181e+01   2.1637301e+01  -8.1224723e+00
   1.7760684e+01   2.1406736e+01  -8.0476667e+00
   1.7489021e+01   2.1069942e+01  -7.9996403e+00
   1.7644715e+01   2.1205262e+01  -8.1432618e+00
   1.7462242e+01   2.1234353e+01  -8.3136624e+00
   1.7306548e+01   2.1099034e+01  -8.1700409e+00
   1.7395738e+01   2.1464919e+01  -8.3884680e+00
   1.7511708e+01   2.1666393e+01  -8.2928729e+00
   1.7289511e+01   2.1761639e+01  -8.2240570e+00
   1.7173541e+01   2.1560165e+01  -8.3196520e+00
   1.8138575e+01   2.1446809e+01  -8.2601042e+00
   1.7982881e+01   2.1311490e+01  -8.1164827e+00
   1.8050138e+01   2.1702969e+01  -8.4411508e+00
   1.7800816e+01   2.1834543e+01  -8.3370860e+00
   1.7202386e+01   2.2418894e+01  -8.3380318e+00
   1.7481308e+01   2.2331758e+01  -8.0957888e+00
   1.7238713e+01   2.2489829e+01  -8.1797880e+00
   1.7223007e+01   2.1992204e+01  -8.2988625e+00
   1.7398219e+01   2.2070155e+01  -8.4731788e+00
   1.7040534e+01   2.2021296e+01  -8.4692631e+00
   1.7010044e+01   2.2296436e+01  -8.7190011e+00
   1.7151906e+01   2.2426942e+01  -8.3851729e+00
   1.6994739e+01   2.2518127e+01  -8.3866884e+00
   1.6872389e+01   2.2418239e+01  -8.6434904e+00
   1.7743991e+01   2.2093632e+01  -8.1905963e+00
   1.7573991e+01   2.1896519e+01  -8.7423336e+00
   1.7842491e+01   2.1802202e+01  -8.4898073e+00
   1.7690527e+01   2.2032054e+01  -8.3805271e+00
   1.7435463e+01   2.1398764e+01  -8.6276846e+00
   1.7591156e+01   2.1534084e+01  -8.7713061e+00
   1.7408684e+01   2.1563175e+01  -8.9417068e+00
   1.7252990e+01   2.1427856e+01  -8.7980852e+00
   1.7329932e+01   2.1759872e+01  -9.0091791e+00
   1.7441999e+01   2.1917563e+01  -8.8655931e+00
   1.7304343e+01   2.2039366e+01  -8.7900824e+00
   1.7080610e+01   2.1891446e+01  -8.9051143e+00
   1.6553970e+01   2.0618950e+01  -8.5584107e+00
   1.6620474e+01   2.0388385e+01  -8.4836052e+00
   1.6580749e+01   2.0454539e+01  -8.2443886e+00
   1.6514246e+01   2.0685105e+01  -8.3191941e+00
   1.6348811e+01   2.0051591e+01  -8.4355787e+00
   1.6504504e+01   2.0186911e+01  -8.5792002e+00
   1.6322032e+01   2.0216002e+01  -8.7496009e+00
   1.6166338e+01   2.0080683e+01  -8.6059793e+00
   1.6255528e+01   2.0446568e+01  -8.8244064e+00
   1.6371497e+01   2.0648042e+01  -8.7288114e+00
   1.6149300e+01   2.0743288e+01  -8.6599954e+00
   1.6033331e+01   2.0541814e+01  -8.7555905e+00
   1.7230303e+01   2.0831406e+01  -8.5048526e+00
   1.7296807e+01   2.0600840e+01  -8.4300470e+00
   1.7257082e+01   2.0666995e+01  -8.1908304e+00
   1.7190579e+01   2.0897560e+01  -8.2656359e+00
   1.7025144e+01   2.0264047e+01  -8.3820205e+00
   1.7180837e+01   2.0399366e+01  -8.5256421e+00
   1.6998364e+01   2.0428458e+01  -8.6960427e+00
   1.6842671e+01   2.0293139e+01  -8.5524211e+00
   1.6931861e+01   2.0659024e+01  -8.7708482e+00
   1.7047830e+01   2.0860497e+01  -8.6752532e+00
   1.6825633e+01   2.0955743e+01  -8.6064372e+00
   1.6709664e+01   2.0754270e+01  -8.7020323e+00
   1.6726701e+01   2.0091665e+01  -8.6480162e+00
   1.6583953e+01   2.0054602e+01  -9.0576334e+00
   1.6500412e+01   2.0947772e+01  -9.1864551e+00
   1.6566915e+01   2.0717207e+01  -9.1116495e+00
   1.6527191e+01   2.0783361e+01  -8.8724329e+00
   1.6460688e+01   2.1013927e+01  -8.9472385e+00
   1.7176745e+01   2.1160228e+01  -9.1328969e+00
   1.7243248e+01   2.0929662e+01  -9.0580913e+00
   1.7203524e+01   2.0995817e+01  -8.8188747e+00
   1.7137021e+01   2.1226382e+01  -8.8936803e+00
   1.6971585e+01   2.0592869e+01  -9.0100649e+00
   1.7127279e+01   2.0728189e+01  -9.1536864e+00
   1.6944806e+01   2.0757280e+01  -9.3240870e+00
   1.6789113e+01   2.0621961e+01  -9.1804655e+00
   1.6878303e+01   2.0987846e+01  -9.3988926e+00
   1.6994272e+01   2.1189319e+01  -9.3032975e+00
   1.6772075e+01   2.1284566e+01  -9.2344815e+00
   1.6656106e+01   2.1083092e+01  -9.3300766e+00
   1.6739647e+01   2.0189921e+01  -9.2012550e+00
   1.6673143e+01   2.0420487e+01  -9.2760605e+00
   1.6984531e+01   2.0691126e+01  -9.5633036e+00
   1.7866912e+01   2.1110016e+01  -8.2120778e+00
   1.7724163e+01   2.1072953e+01  -8.6216950e+00
   1.7501966e+01   2.1168199e+01  -8.5528790e+00
   1.7385997e+01   2.0966725e+01  -8.6484741e+00
   1.7813354e+01   2.1438838e+01  -8.8401221e+00
   1.7554636e+01   2.1200301e+01  -9.3453344e+00
   1.7670605e+01   2.1401775e+01  -9.2497393e+00
   1.7448408e+01   2.1497021e+01  -9.1809234e+00
   1.7332439e+01   2.1295547e+01  -9.2765184e+00
   1.6021943e+01   2.2463474e+01  -9.1568553e+00
   1.6088446e+01   2.2232908e+01  -9.0820497e+00
   1.6048722e+01   2.2299063e+01  -8.8428331e+00
   1.5816783e+01   2.1896115e+01  -9.0340232e+00
   1.5972477e+01   2.2031435e+01  -9.1776448e+00
   1.6740397e+01   2.2439283e+01  -8.7667500e+00
   1.6493116e+01   2.2108571e+01  -8.9804650e+00
   1.6310643e+01   2.2137662e+01  -9.1508657e+00
   1.6234398e+01   2.1870034e+01  -9.4856773e+00
   1.6300902e+01   2.1639469e+01  -9.4108718e+00
   1.6261177e+01   2.1705623e+01  -9.1716552e+00
   1.6194674e+01   2.1936189e+01  -9.2464607e+00
   1.6990293e+01   2.1880148e+01  -9.1810952e+00
   1.6838329e+01   2.2110000e+01  -9.0718150e+00
   1.6705572e+01   2.1515131e+01  -9.3092871e+00
   1.6861265e+01   2.1650450e+01  -9.4529087e+00
   1.6678793e+01   2.1679542e+01  -9.6233093e+00
   1.6523099e+01   2.1544223e+01  -9.4796877e+00
   1.7014100e+01   2.2209999e+01  -8.8721988e+00
   1.7123187e+01   2.1489050e+01  -9.7609412e+00
   1.7189690e+01   2.1258484e+01  -9.6861357e+00
   1.7149966e+01   2.1324639e+01  -9.4469191e+00
   1.7083462e+01   2.1555204e+01  -9.5217246e+00
   1.6918027e+01   2.0921691e+01  -9.6381092e+00
   1.7073721e+01   2.1057011e+01  -9.7817307e+00
   1.3314428e+01   1.2341475e+01  -2.0533219e+00
   1.3131955e+01   1.2370567e+01  -2.2237225e+00
   1.2909758e+01   1.2465813e+01  -2.1549066e+00
   1.7128312e+01   2.2610916e+01  -8.0932493e+00
   1.6934820e+01   2.2631165e+01  -8.2530086e+00
   1.8075776e+01   2.1654632e+01  -8.2914729e+00
   1.7896930e+01   2.1981107e+01  -8.2296037e+00
   1.7853578e+01   2.1749878e+01  -8.2226570e+00
   1.7892972e+01   2.1794153e+01  -8.4426663e+00
   1.7516707e+01   2.2215659e+01  -8.2458585e+00
   1.7418431e+01   2.2247016e+01  -8.3206508e+00
   1.7307333e+01   2.2294639e+01  -8.2862429e+00
   1.7343659e+01   2.2365574e+01  -8.1279991e+00
   1.7313670e+01   2.2131585e+01  -8.3721526e+00
   1.7456203e+01   2.2170892e+01  -8.4253813e+00
   1.7151059e+01   2.2127599e+01  -8.6621615e+00
   1.7131197e+01   2.2160677e+01  -8.5425532e+00
   1.7300288e+01   2.2125803e+01  -8.6368847e+00
   1.7094241e+01   2.2298701e+01  -8.6233928e+00
   1.7074379e+01   2.2331779e+01  -8.5037845e+00
   1.6917213e+01   2.2422963e+01  -8.5053001e+00
   1.7652755e+01   2.2108178e+01  -8.2757966e+00
   1.7817185e+01   2.1740108e+01  -8.6586925e+00
   1.7660349e+01   2.1720864e+01  -8.6794153e+00
   1.7750335e+01   2.1842591e+01  -8.3842271e+00
   1.7620625e+01   2.1787018e+01  -8.4401987e+00
   1.7592251e+01   2.2063411e+01  -8.4553194e+00
   1.7534266e+01   2.1962674e+01  -8.5031170e+00
   1.7384926e+01   2.1878969e+01  -8.9964502e+00
   1.7220146e+01   2.2037101e+01  -8.8856907e+00
   1.7112038e+01   2.2066363e+01  -8.8162140e+00
   1.7227760e+01   2.1970154e+01  -8.9979657e+00
   1.7172766e+01   2.1851056e+01  -9.0106946e+00
   1.8099548e+01   2.1577351e+01  -8.5667932e+00
   1.8177395e+01   2.1645010e+01  -8.6386039e+00
   1.8072532e+01   2.1593481e+01  -8.9058766e+00
   1.7917075e+01   2.1606442e+01  -8.7371938e+00
   1.7994922e+01   2.1674102e+01  -8.8090046e+00
   1.6786816e+01   2.2332025e+01  -8.9274610e+00
   1.6577442e+01   2.2411005e+01  -8.9678454e+00
   1.6602748e+01   2.2473098e+01  -8.7989603e+00
   1.6694877e+01   2.2200329e+01  -9.0881631e+00
   1.6583779e+01   2.2247952e+01  -9.0537551e+00
   1.6401306e+01   2.2277043e+01  -9.2241557e+00
   1.6964987e+01   2.1818055e+01  -9.3499803e+00
   1.6898137e+01   2.1920538e+01  -9.0755149e+00
   1.6994807e+01   2.2007294e+01  -9.2155074e+00
   1.6393796e+01   2.1982612e+01  -9.5858620e+00
   1.6922863e+01   2.2224544e+01  -8.9573991e+00
   1.7369657e+01   2.1693717e+01  -9.2483957e+00
   1.7187184e+01   2.1722809e+01  -9.4187963e+00
   1.7713345e+01   2.1533636e+01  -9.4111615e+00
