   1.4716293e+01   1.5508542e+01  -2.8284221e+00
   1.5027680e+01   1.5779181e+01  -3.1156652e+00
   1.4662735e+01   1.5837364e+01  -3.4564664e+00
   1.6015401e+01   1.6262275e+01  -3.3493501e+00
   1.5704013e+01   1.5991636e+01  -3.0621070e+00
   1.5882394e+01   1.6723406e+01  -3.4989612e+00
   1.6114333e+01   1.7126354e+01  -3.3077711e+00
   1.5152503e+01   1.6839773e+01  -4.1805637e+00
   1.4609177e+01   1.6166186e+01  -4.0845108e+00
   1.4920564e+01   1.6436825e+01  -4.3717539e+00
   1.6372162e+01   1.7725815e+01  -4.2230585e+00
   1.6505169e+01   1.7264684e+01  -4.0734474e+00
   1.6425720e+01   1.7396993e+01  -3.5950142e+00
   1.5961843e+01   1.6591097e+01  -3.9773944e+00
   1.6273230e+01   1.6861736e+01  -4.2646375e+00
   1.5908284e+01   1.6919919e+01  -4.6054388e+00
   1.5596897e+01   1.6649280e+01  -4.3181957e+00
   1.5775278e+01   1.7381050e+01  -4.7550499e+00
   1.6007216e+01   1.7783998e+01  -4.5638598e+00
   1.6211932e+01   1.8531819e+01  -5.3969417e+00
   1.6318159e+01   1.8235099e+01  -5.5613527e+00
   1.6398052e+01   1.7922328e+01  -5.3295360e+00
   1.6318604e+01   1.8054637e+01  -4.8511028e+00
   1.5854726e+01   1.7248741e+01  -5.2334831e+00
   1.6166114e+01   1.7519380e+01  -5.5207262e+00
   1.7260950e+01   1.7344830e+01  -4.4983224e+00
   1.6949563e+01   1.7074192e+01  -4.2110793e+00
   1.7127944e+01   1.7805961e+01  -4.6479335e+00
   1.7412996e+01   1.8060549e+01  -4.5389489e+00
   1.7306768e+01   1.8357269e+01  -4.3745379e+00
   1.7084571e+01   1.8452515e+01  -4.3057219e+00
   1.6746405e+01   1.8346287e+01  -4.3325010e+00
   1.6683549e+01   1.7996453e+01  -4.5103016e+00
   1.7395514e+01   1.8903616e+01  -5.3032148e+00
   1.7501742e+01   1.8606896e+01  -5.4676259e+00
   1.7568246e+01   1.8376331e+01  -5.3928203e+00
   1.7595025e+01   1.8211920e+01  -5.0787981e+00
   1.7555300e+01   1.8278074e+01  -4.8395815e+00
   1.7449072e+01   1.8574794e+01  -4.6751705e+00
   1.7382569e+01   1.8805359e+01  -4.7499761e+00
   1.7355790e+01   1.8969770e+01  -5.0639982e+00
   1.6951120e+01   1.9094108e+01  -5.1655829e+00
   1.7133593e+01   1.9065016e+01  -4.9951823e+00
   1.7160372e+01   1.8900605e+01  -4.6811601e+00
   1.7004678e+01   1.8765286e+01  -4.5375385e+00
   1.7207392e+01   1.7673652e+01  -5.1263667e+00
   1.7532169e+01   1.7862086e+01  -5.2565987e+00
   1.7505390e+01   1.8026497e+01  -5.5706209e+00
   1.7322917e+01   1.8055588e+01  -5.7410215e+00
   1.6984751e+01   1.7949361e+01  -5.7678006e+00
   1.6842447e+01   1.7731836e+01  -5.4671680e+00
   1.6865133e+01   1.8328286e+01  -5.7604007e+00
   1.7203300e+01   1.8434514e+01  -5.7336216e+00
   1.7319269e+01   1.8635988e+01  -5.6380265e+00
   1.7213041e+01   1.8932708e+01  -5.4736155e+00
   1.6990844e+01   1.9027954e+01  -5.4047995e+00
   1.6652678e+01   1.8921726e+01  -5.4315786e+00
   1.6536709e+01   1.8720252e+01  -5.5271736e+00
   1.6642936e+01   1.8423532e+01  -5.6915847e+00
   1.4331864e+01   1.4570338e+01  -3.6892356e+00
   1.4119409e+01   1.5163778e+01  -3.3604135e+00
   1.5658640e+01   1.4798736e+01  -2.4756417e+00
   1.5061755e+01   1.4453971e+01  -3.0076330e+00
   1.5293694e+01   1.4856919e+01  -2.8164429e+00
   1.4849300e+01   1.5047411e+01  -2.6788110e+00
   1.5970027e+01   1.5069374e+01  -2.7628847e+00
   1.5551523e+01   1.5456380e+01  -3.7317303e+00
   1.5684530e+01   1.4995249e+01  -3.5821192e+00
   1.5605082e+01   1.5127558e+01  -3.1036860e+00
   1.5472075e+01   1.5588689e+01  -3.2532971e+00
   1.5141204e+01   1.4321662e+01  -3.4860663e+00
   1.5452592e+01   1.4592301e+01  -3.7733093e+00
   1.5087646e+01   1.4650484e+01  -4.1141106e+00
   1.4776259e+01   1.4379846e+01  -3.8268675e+00
   1.4954639e+01   1.5111615e+01  -4.2637217e+00
   1.5186578e+01   1.5514563e+01  -4.0725316e+00
   1.4742184e+01   1.5705055e+01  -3.9348996e+00
   1.6904189e+01   1.5881291e+01  -3.6246140e+00
   1.6493870e+01   1.4746573e+01  -3.3789499e+00
   1.6805258e+01   1.5017212e+01  -3.6661930e+00
   1.6440312e+01   1.5075396e+01  -4.0069942e+00
   1.6128925e+01   1.4804757e+01  -3.7197511e+00
   1.6307305e+01   1.5536526e+01  -4.1566054e+00
   1.6539244e+01   1.5939474e+01  -3.9654152e+00
   1.6094849e+01   1.6129966e+01  -3.8277833e+00
   1.5862911e+01   1.5727019e+01  -4.0189734e+00
   1.5896986e+01   1.4401809e+01  -3.9109413e+00
   1.7215577e+01   1.6151930e+01  -3.9118570e+00
   1.5577414e+01   1.5652893e+01  -4.8382079e+00
   1.5497965e+01   1.5785202e+01  -4.3597747e+00
   1.5364958e+01   1.6246333e+01  -4.5093858e+00
   1.6797073e+01   1.6538935e+01  -4.8807026e+00
   1.6930080e+01   1.6077804e+01  -4.7310915e+00
   1.6850631e+01   1.6210113e+01  -4.2526583e+00
   1.6717624e+01   1.6671244e+01  -4.4022694e+00
   1.6386754e+01   1.5404218e+01  -4.6350386e+00
   1.6333196e+01   1.5733040e+01  -5.2630829e+00
   1.6021808e+01   1.5462401e+01  -4.9758398e+00
   1.6200189e+01   1.6194171e+01  -5.4126940e+00
   1.6432127e+01   1.6597118e+01  -5.2215039e+00
   1.5987733e+01   1.6787610e+01  -5.0838720e+00
   1.6636843e+01   1.7344939e+01  -6.0545858e+00
   1.6743070e+01   1.7048219e+01  -6.2189968e+00
   1.6822963e+01   1.6735448e+01  -5.9871802e+00
   1.6743515e+01   1.6867757e+01  -5.5087470e+00
   1.6610508e+01   1.7328888e+01  -5.6583581e+00
   1.7731679e+01   1.7170389e+01  -5.0321820e+00
   1.7340399e+01   1.7212522e+01  -4.9767556e+00
   1.7108460e+01   1.6809574e+01  -5.1679457e+00
   1.7820425e+01   1.7716736e+01  -5.9608590e+00
   1.7873984e+01   1.7387914e+01  -5.3328146e+00
   1.7807480e+01   1.7618480e+01  -5.4076202e+00
   1.7780701e+01   1.7782891e+01  -5.7216424e+00
   1.7637953e+01   1.7745828e+01  -6.1312596e+00
   1.7415755e+01   1.7841074e+01  -6.0624436e+00
   1.7077589e+01   1.7734846e+01  -6.0892227e+00
   1.6961620e+01   1.7533372e+01  -6.1848178e+00
   1.7067847e+01   1.7236653e+01  -6.3492288e+00
   1.7756812e+01   1.9425832e+01  -4.8594186e+00
   1.7912506e+01   1.9561151e+01  -5.0030401e+00
   1.7730033e+01   1.9590243e+01  -5.1734407e+00
   1.7574339e+01   1.9454924e+01  -5.0298192e+00
   1.7663529e+01   1.9820809e+01  -5.2482463e+00
   1.7616332e+01   1.8918107e+01  -4.6102834e+00
   1.7929543e+01   1.8898547e+01  -4.9490240e+00
   1.7707346e+01   1.8993793e+01  -4.8802081e+00
   1.7881901e+01   1.8176308e+01  -5.0213110e+00
   1.7842177e+01   1.8242462e+01  -4.7820944e+00
   1.8208502e+01   1.8074541e+01  -5.2030405e+00
   1.8052808e+01   1.7939222e+01  -5.0594190e+00
   1.8141999e+01   1.8305107e+01  -5.2778461e+00
   1.8257968e+01   1.8506581e+01  -5.1822510e+00
   1.8035771e+01   1.8601827e+01  -5.1134351e+00
   1.7919802e+01   1.8400353e+01  -5.2090301e+00
   1.7615887e+01   1.9098570e+01  -5.3205333e+00
   1.7576163e+01   1.9164724e+01  -5.0813167e+00
   1.8174427e+01   1.9399751e+01  -5.3110727e+00
   1.8240930e+01   1.9169185e+01  -5.2362671e+00
   1.7969267e+01   1.8832392e+01  -5.1882406e+00
   1.8124961e+01   1.8967712e+01  -5.3318622e+00
   1.7942488e+01   1.8996803e+01  -5.5022628e+00
   1.7786795e+01   1.8861484e+01  -5.3586413e+00
   1.7875985e+01   1.9227369e+01  -5.5770684e+00
   1.7991954e+01   1.9428843e+01  -5.4814733e+00
   1.7769757e+01   1.9524089e+01  -5.4126573e+00
   1.7653788e+01   1.9322615e+01  -5.5082524e+00
   1.8552318e+01   1.9439824e+01  -5.5235102e+00
   1.8330121e+01   1.9535070e+01  -5.4546942e+00
   1.7841733e+01   1.8422924e+01  -5.4923443e+00
   1.7775229e+01   1.8653490e+01  -5.5671499e+00
   1.8386883e+01   1.8806311e+01  -5.6398947e+00
   1.8453386e+01   1.8575746e+01  -5.5650892e+00
   1.8413662e+01   1.8641900e+01  -5.3258726e+00
   1.8347158e+01   1.8872466e+01  -5.4006781e+00
   1.8181723e+01   1.8238952e+01  -5.5170627e+00
   1.8337417e+01   1.8374272e+01  -5.6606842e+00
   1.8154944e+01   1.8403363e+01  -5.8310849e+00
   1.7999250e+01   1.8268044e+01  -5.6874633e+00
   1.8088440e+01   1.8633929e+01  -5.9058904e+00
   1.8204410e+01   1.8835403e+01  -5.8102954e+00
   1.7982213e+01   1.8930649e+01  -5.7414794e+00
   1.7866243e+01   1.8729175e+01  -5.8370745e+00
   1.8831277e+01   1.8615819e+01  -5.7775267e+00
   1.8675583e+01   1.8480500e+01  -5.6339052e+00
   1.8764773e+01   1.8846384e+01  -5.8523323e+00
   1.8880743e+01   1.9047858e+01  -5.7567372e+00
   1.8658546e+01   1.9143104e+01  -5.6879212e+00
   1.8542576e+01   1.8941631e+01  -5.7835163e+00
   1.7182614e+01   1.9677518e+01  -5.6846426e+00
   1.6973363e+01   1.9871021e+01  -6.1690654e+00
   1.7129056e+01   2.0006340e+01  -6.3126870e+00
   1.6946583e+01   2.0035432e+01  -6.4830876e+00
   1.7908413e+01   2.0322013e+01  -5.6102949e+00
   1.7974917e+01   2.0091447e+01  -5.5354894e+00
   1.7935192e+01   2.0157602e+01  -5.2962728e+00
   1.7703254e+01   1.9754654e+01  -5.4874629e+00
   1.7858947e+01   1.9889973e+01  -5.6310844e+00
   1.7676475e+01   1.9919065e+01  -5.8014851e+00
   1.7520781e+01   1.9783746e+01  -5.6578635e+00
   1.7609971e+01   2.0149631e+01  -5.8762906e+00
   1.8352808e+01   2.0131521e+01  -5.7479269e+00
   1.8197114e+01   1.9996201e+01  -5.6043053e+00
   1.8286304e+01   2.0362086e+01  -5.8227324e+00
   1.8402273e+01   2.0563560e+01  -5.7271374e+00
   1.8180076e+01   2.0658806e+01  -5.6583214e+00
   1.8064107e+01   2.0457332e+01  -5.7539165e+00
   1.7854855e+01   2.0650835e+01  -6.2383393e+00
   1.7921359e+01   2.0420269e+01  -6.1635337e+00
   1.7881634e+01   2.0486424e+01  -5.9243171e+00
   1.7649696e+01   2.0083476e+01  -6.1155072e+00
   1.7805389e+01   2.0218796e+01  -6.2591288e+00
   1.7622916e+01   2.0247887e+01  -6.4295294e+00
   1.7467223e+01   2.0112568e+01  -6.2859079e+00
   1.7556413e+01   2.0478453e+01  -6.5043350e+00
   1.7672382e+01   2.0679927e+01  -6.4087399e+00
   1.8531188e+01   2.0863290e+01  -6.1847811e+00
   1.8597692e+01   2.0632725e+01  -6.1099755e+00
   1.8557967e+01   2.0698879e+01  -5.8707589e+00
   1.8491464e+01   2.0929445e+01  -5.9455645e+00
   1.8326028e+01   2.0295932e+01  -6.0619490e+00
   1.8481722e+01   2.0431251e+01  -6.2055706e+00
   1.8299249e+01   2.0460343e+01  -6.3759712e+00
   1.8143556e+01   2.0325023e+01  -6.2323497e+00
   1.8232746e+01   2.0690908e+01  -6.4507768e+00
   1.8348715e+01   2.0892382e+01  -6.3551817e+00
   1.8126518e+01   2.0987628e+01  -6.2863657e+00
   1.8010549e+01   2.0786154e+01  -6.3819608e+00
   1.6223053e+01   1.8920275e+01  -5.8986829e+00
   1.6768203e+01   1.9303662e+01  -6.0462334e+00
   1.6834706e+01   1.9073096e+01  -5.9714278e+00
   1.6794982e+01   1.9139251e+01  -5.7322112e+00
   1.6728479e+01   1.9369816e+01  -5.8070168e+00
   1.6563043e+01   1.8736303e+01  -5.9234013e+00
   1.6718737e+01   1.8871623e+01  -6.0670229e+00
   1.6536264e+01   1.8900714e+01  -6.2374235e+00
   1.6380571e+01   1.8765395e+01  -6.0938020e+00
   1.6521495e+01   1.9092657e+01  -5.6326872e+00
   1.6405526e+01   1.8891183e+01  -5.7282823e+00
   1.6585730e+01   1.9332754e+01  -6.2166340e+00
   1.7444536e+01   1.9516117e+01  -5.9926752e+00
   1.7511039e+01   1.9285552e+01  -5.9178696e+00
   1.7471315e+01   1.9351706e+01  -5.6786530e+00
   1.7404812e+01   1.9582272e+01  -5.7534586e+00
   1.7239376e+01   1.8948759e+01  -5.8698432e+00
   1.7395070e+01   1.9084078e+01  -6.0134647e+00
   1.7212597e+01   1.9113170e+01  -6.1838653e+00
   1.7056904e+01   1.8977850e+01  -6.0402438e+00
   1.7250942e+01   1.9156753e+01  -5.6613346e+00
   1.7028745e+01   1.9251999e+01  -5.5925186e+00
   1.7146094e+01   1.9343735e+01  -6.2586709e+00
   1.7262063e+01   1.9545209e+01  -6.1630758e+00
   1.7039866e+01   1.9640455e+01  -6.0942599e+00
   1.6923897e+01   1.9438981e+01  -6.1898549e+00
   1.6980659e+01   1.8710222e+01  -6.3750555e+00
   1.7047162e+01   1.8479657e+01  -6.3002499e+00
   1.7007438e+01   1.8545811e+01  -6.0610333e+00
   1.6940934e+01   1.8776376e+01  -6.1358388e+00
   1.6775499e+01   1.8142863e+01  -6.2522234e+00
   1.6931193e+01   1.8278183e+01  -6.3958450e+00
   1.6787064e+01   1.8350857e+01  -6.0437148e+00
   1.6564867e+01   1.8446104e+01  -5.9748988e+00
   1.7656991e+01   1.8922678e+01  -6.3214973e+00
   1.7723495e+01   1.8692112e+01  -6.2466917e+00
   1.7683771e+01   1.8758267e+01  -6.0074751e+00
   1.7617267e+01   1.8988832e+01  -6.0822807e+00
   1.7451832e+01   1.8355319e+01  -6.1986652e+00
   1.7607526e+01   1.8490638e+01  -6.3422868e+00
   1.7425053e+01   1.8519730e+01  -6.5126874e+00
   1.7269359e+01   1.8384411e+01  -6.3690659e+00
   1.7410284e+01   1.8711673e+01  -5.9079511e+00
   1.7294314e+01   1.8510199e+01  -6.0035462e+00
   1.7358549e+01   1.8750295e+01  -6.5874930e+00
   1.7474519e+01   1.8951769e+01  -6.4918979e+00
   1.7252322e+01   1.9047015e+01  -6.4230819e+00
   1.7136352e+01   1.8845541e+01  -6.5186770e+00
   1.6781148e+01   1.9401918e+01  -6.5994721e+00
   1.6741424e+01   1.9468073e+01  -6.3602555e+00
   1.6674920e+01   1.9698638e+01  -6.4350611e+00
   1.7390978e+01   1.9844940e+01  -6.6207195e+00
   1.7457481e+01   1.9614374e+01  -6.5459140e+00
   1.7417757e+01   1.9680528e+01  -6.3066974e+00
   1.7351253e+01   1.9911094e+01  -6.3815029e+00
   1.7185818e+01   1.9277581e+01  -6.4978875e+00
   1.7341512e+01   1.9412900e+01  -6.6415090e+00
   1.7159039e+01   1.9441992e+01  -6.8119097e+00
   1.7003345e+01   1.9306672e+01  -6.6682881e+00
   1.7092536e+01   1.9672557e+01  -6.8867152e+00
   1.7208505e+01   1.9874031e+01  -6.7911202e+00
   1.6986308e+01   1.9969277e+01  -6.7223042e+00
   1.6953879e+01   1.8874633e+01  -6.6890776e+00
   1.7603433e+01   1.9251500e+01  -6.9495416e+00
   1.7669937e+01   1.9020934e+01  -6.8747360e+00
   1.7630212e+01   1.9087089e+01  -6.6355194e+00
   1.7563709e+01   1.9317654e+01  -6.7103250e+00
   1.7398274e+01   1.8684141e+01  -6.8267096e+00
   1.7553967e+01   1.8819460e+01  -6.9703311e+00
   1.7420960e+01   1.9280591e+01  -7.1199422e+00
   1.8120869e+01   1.9728573e+01  -5.9391170e+00
   1.8187372e+01   1.9498008e+01  -5.8643114e+00
   1.8147648e+01   1.9564162e+01  -5.6250948e+00
   1.8081145e+01   1.9794727e+01  -5.6999004e+00
   1.7915709e+01   1.9161214e+01  -5.8162850e+00
   1.8071403e+01   1.9296534e+01  -5.9599065e+00
   1.7888930e+01   1.9325625e+01  -6.1303071e+00
   1.7733236e+01   1.9190306e+01  -5.9866856e+00
   1.7822427e+01   1.9556191e+01  -6.2051127e+00
   1.7938396e+01   1.9757665e+01  -6.1095176e+00
   1.7716199e+01   1.9852911e+01  -6.0407017e+00
   1.7600230e+01   1.9651437e+01  -6.1362967e+00
   1.8797202e+01   1.9941029e+01  -5.8855588e+00
   1.8592042e+01   1.9373670e+01  -5.7627268e+00
   1.8747736e+01   1.9508989e+01  -5.9063483e+00
   1.8565263e+01   1.9538081e+01  -6.0767490e+00
   1.8409569e+01   1.9402761e+01  -5.9331274e+00
   1.8498760e+01   1.9768646e+01  -6.1515545e+00
   1.8614729e+01   1.9970120e+01  -6.0559595e+00
   1.8392532e+01   2.0065366e+01  -5.9871435e+00
   1.8276563e+01   1.9863892e+01  -6.0827385e+00
   1.8333324e+01   1.9135133e+01  -6.2679391e+00
   1.8399828e+01   1.8904568e+01  -6.1931335e+00
   1.8360104e+01   1.8970722e+01  -5.9539169e+00
   1.8293600e+01   1.9201288e+01  -6.0287225e+00
   1.8128165e+01   1.8567774e+01  -6.1451070e+00
   1.8283859e+01   1.8703094e+01  -6.2887286e+00
   1.8101386e+01   1.8732186e+01  -6.4591292e+00
   1.7945692e+01   1.8596866e+01  -6.3155077e+00
   1.8034882e+01   1.8962751e+01  -6.5339348e+00
   1.8150852e+01   1.9164225e+01  -6.4383397e+00
   1.7928655e+01   1.9259471e+01  -6.3695237e+00
   1.7812685e+01   1.9057997e+01  -6.4651188e+00
   1.9009657e+01   1.9347589e+01  -6.2143809e+00
   1.9076161e+01   1.9117023e+01  -6.1395753e+00
   1.9036436e+01   1.9183178e+01  -5.9003587e+00
   1.8969933e+01   1.9413743e+01  -5.9751643e+00
   1.8804498e+01   1.8780230e+01  -6.0915489e+00
   1.8960191e+01   1.8915549e+01  -6.2351704e+00
   1.8777719e+01   1.8944641e+01  -6.4055710e+00
   1.8622025e+01   1.8809322e+01  -6.2619495e+00
   1.8711215e+01   1.9175207e+01  -6.4803766e+00
   1.8827185e+01   1.9376680e+01  -6.3847815e+00
   1.8604987e+01   1.9471926e+01  -6.3159656e+00
   1.8489018e+01   1.9270453e+01  -6.4115606e+00
   1.8067311e+01   2.0057395e+01  -6.5671613e+00
   1.8133814e+01   1.9826830e+01  -6.4923558e+00
   1.8094090e+01   1.9892984e+01  -6.2531392e+00
   1.8027586e+01   2.0123550e+01  -6.3279447e+00
   1.7862151e+01   1.9490036e+01  -6.4443293e+00
   1.8017845e+01   1.9625356e+01  -6.5879508e+00
   1.7835372e+01   1.9654447e+01  -6.7583515e+00
   1.7679678e+01   1.9519128e+01  -6.6147299e+00
   1.7768869e+01   1.9885013e+01  -6.8331570e+00
   1.7884838e+01   2.0086487e+01  -6.7375620e+00
   1.7662641e+01   2.0181733e+01  -6.6687460e+00
   1.7546671e+01   1.9980259e+01  -6.7643411e+00
   1.8743644e+01   2.0269851e+01  -6.5136032e+00
   1.8810147e+01   2.0039285e+01  -6.4387976e+00
   1.8770423e+01   2.0105440e+01  -6.1995810e+00
   1.8703919e+01   2.0336005e+01  -6.2743866e+00
   1.8538484e+01   1.9702492e+01  -6.3907711e+00
   1.8694178e+01   1.9837811e+01  -6.5343927e+00
   1.8511705e+01   1.9866903e+01  -6.7047933e+00
   1.8356011e+01   1.9731584e+01  -6.5611718e+00
   1.8445202e+01   2.0097468e+01  -6.7795989e+00
   1.8561171e+01   2.0298942e+01  -6.6840038e+00
   1.8338974e+01   2.0394188e+01  -6.6151878e+00
   1.8223004e+01   2.0192714e+01  -6.7107829e+00
   1.8279766e+01   1.9463955e+01  -6.8959834e+00
   1.8346270e+01   1.9233390e+01  -6.8211779e+00
   1.8306545e+01   1.9299544e+01  -6.5819613e+00
   1.8240042e+01   1.9530110e+01  -6.6567668e+00
   1.8074607e+01   1.8896597e+01  -6.7731514e+00
   1.8230300e+01   1.9031916e+01  -6.9167729e+00
   1.8047828e+01   1.9061008e+01  -7.0871736e+00
   1.7892134e+01   1.8925688e+01  -6.9435520e+00
   1.7981324e+01   1.9291573e+01  -7.1619791e+00
   1.8097293e+01   1.9493047e+01  -7.0663841e+00
   1.7875096e+01   1.9588293e+01  -6.9975681e+00
   1.7759127e+01   1.9386819e+01  -7.0931631e+00
   1.8956099e+01   1.9676411e+01  -6.8424252e+00
   1.9022603e+01   1.9445845e+01  -6.7676197e+00
   1.8982878e+01   1.9512000e+01  -6.5284031e+00
   1.8916375e+01   1.9742565e+01  -6.6032086e+00
   1.8750940e+01   1.9109052e+01  -6.7195932e+00
   1.8906633e+01   1.9244372e+01  -6.8632147e+00
   1.8724161e+01   1.9273463e+01  -7.0336154e+00
   1.8568467e+01   1.9138144e+01  -6.8899938e+00
   1.8657657e+01   1.9504029e+01  -7.1084209e+00
   1.8773626e+01   1.9705502e+01  -7.0128259e+00
   1.8551429e+01   1.9800749e+01  -6.9440099e+00
   1.8435460e+01   1.9599275e+01  -7.0396050e+00
   1.7191467e+01   2.0536636e+01  -6.8451362e+00
   1.6919804e+01   2.0199843e+01  -6.7971098e+00
   1.7075498e+01   2.0335162e+01  -6.9407313e+00
   1.7801297e+01   2.0979657e+01  -6.8663836e+00
   1.7867800e+01   2.0749091e+01  -6.7915780e+00
   1.7828076e+01   2.0815246e+01  -6.5523614e+00
   1.7596137e+01   2.0412298e+01  -6.7435516e+00
   1.7751831e+01   2.0547618e+01  -6.8871731e+00
   1.7569358e+01   2.0576709e+01  -7.0575737e+00
   1.7413665e+01   2.0441390e+01  -6.9139522e+00
   1.7502855e+01   2.0807275e+01  -7.1323793e+00
   1.7618824e+01   2.1008749e+01  -7.0367842e+00
   1.8477630e+01   2.1192113e+01  -6.8128254e+00
   1.8544133e+01   2.0961547e+01  -6.7380199e+00
   1.8504409e+01   2.1027701e+01  -6.4988033e+00
   1.8437906e+01   2.1258267e+01  -6.5736088e+00
   1.8272470e+01   2.0624754e+01  -6.6899934e+00
   1.8428164e+01   2.0760073e+01  -6.8336149e+00
   1.8245691e+01   2.0789165e+01  -7.0040156e+00
   1.8089998e+01   2.0653845e+01  -6.8603940e+00
   1.8179188e+01   2.1019730e+01  -7.0788211e+00
   1.8295157e+01   2.1221204e+01  -6.9832261e+00
   1.8072960e+01   2.1316450e+01  -6.9144101e+00
   1.7956991e+01   2.1114976e+01  -7.0100052e+00
   1.7747739e+01   2.1308479e+01  -7.4944280e+00
   1.7814242e+01   2.1077914e+01  -7.4196224e+00
   1.7774518e+01   2.1144068e+01  -7.1804058e+00
   1.7542579e+01   2.0741120e+01  -7.3715959e+00
   1.7698273e+01   2.0876440e+01  -7.5152175e+00
   1.8424072e+01   2.1520935e+01  -7.4408698e+00
   1.8490575e+01   2.1290369e+01  -7.3660642e+00
   1.8450851e+01   2.1356524e+01  -7.1268476e+00
   1.8384347e+01   2.1587089e+01  -7.2016532e+00
   1.8218912e+01   2.0953576e+01  -7.3180377e+00
   1.8374606e+01   2.1088895e+01  -7.4616593e+00
   1.8192133e+01   2.1117987e+01  -7.6320599e+00
   1.8036439e+01   2.0982668e+01  -7.4884384e+00
   1.8125630e+01   2.1348552e+01  -7.7068655e+00
   1.8241599e+01   2.1550026e+01  -7.6112704e+00
   1.8019402e+01   2.1645272e+01  -7.5424544e+00
   1.7903432e+01   2.1443798e+01  -7.6380495e+00
   1.7403923e+01   1.9943196e+01  -7.1739583e+00
   1.7364199e+01   2.0009351e+01  -6.9347417e+00
   1.7297695e+01   2.0239916e+01  -7.0095473e+00
   1.7576654e+01   1.9415911e+01  -7.2635638e+00
   1.8013753e+01   2.0386217e+01  -7.1952057e+00
   1.8080256e+01   2.0155652e+01  -7.1204001e+00
   1.8040532e+01   2.0221806e+01  -6.8811835e+00
   1.7974028e+01   2.0452372e+01  -6.9559891e+00
   1.7808593e+01   1.9818858e+01  -7.0723736e+00
   1.7964287e+01   1.9954178e+01  -7.2159952e+00
   1.7781814e+01   1.9983269e+01  -7.3863958e+00
   1.7626120e+01   1.9847950e+01  -7.2427743e+00
   1.7715310e+01   2.0213835e+01  -7.4612014e+00
   1.7831280e+01   2.0415309e+01  -7.3656063e+00
   1.7609083e+01   2.0510555e+01  -7.2967903e+00
   1.7493113e+01   2.0309081e+01  -7.3923854e+00
   1.8690085e+01   2.0598673e+01  -7.1416475e+00
   1.8756589e+01   2.0368107e+01  -7.0668419e+00
   1.8716865e+01   2.0434262e+01  -6.8276253e+00
   1.8650361e+01   2.0664827e+01  -6.9024309e+00
   1.8484926e+01   2.0031314e+01  -7.0188155e+00
   1.8640620e+01   2.0166633e+01  -7.1624370e+00
   1.8458147e+01   2.0195725e+01  -7.3328376e+00
   1.8302453e+01   2.0060406e+01  -7.1892161e+00
   1.8391643e+01   2.0426290e+01  -7.4076432e+00
   1.8507613e+01   2.0627764e+01  -7.3120481e+00
   1.8285416e+01   2.0723010e+01  -7.2432322e+00
   1.8169446e+01   2.0521537e+01  -7.3388272e+00
   1.8226208e+01   1.9792777e+01  -7.5240278e+00
   1.8292712e+01   1.9562212e+01  -7.4492222e+00
   1.8252987e+01   1.9628366e+01  -7.2100056e+00
   1.8186484e+01   1.9858932e+01  -7.2848112e+00
   1.8021048e+01   1.9225419e+01  -7.4011957e+00
   1.8176742e+01   1.9360738e+01  -7.5448173e+00
   1.8043735e+01   1.9821869e+01  -7.6944284e+00
   1.8902541e+01   2.0005233e+01  -7.4704696e+00
   1.8969044e+01   1.9774667e+01  -7.3956640e+00
   1.8929320e+01   1.9840822e+01  -7.1564474e+00
   1.8862817e+01   2.0071387e+01  -7.2312530e+00
   1.8697381e+01   1.9437874e+01  -7.3476375e+00
   1.8853075e+01   1.9573194e+01  -7.4912591e+00
   1.8670602e+01   1.9602285e+01  -7.6616597e+00
   1.8514909e+01   1.9466966e+01  -7.5180382e+00
   1.8604099e+01   1.9832851e+01  -7.7364653e+00
   1.8720068e+01   2.0034325e+01  -7.6408702e+00
   1.8497871e+01   2.0129571e+01  -7.5720542e+00
   1.8381902e+01   1.9928097e+01  -7.6676493e+00
   1.7960194e+01   2.0715039e+01  -7.8232500e+00
   1.8026698e+01   2.0484474e+01  -7.7484445e+00
   1.7986973e+01   2.0550628e+01  -7.5092279e+00
   1.7920470e+01   2.0781194e+01  -7.5840334e+00
   1.8636527e+01   2.0927495e+01  -7.7696918e+00
   1.8703031e+01   2.0696929e+01  -7.6948863e+00
   1.8663306e+01   2.0763084e+01  -7.4556697e+00
   1.8596803e+01   2.0993649e+01  -7.5304752e+00
   1.8431368e+01   2.0360136e+01  -7.6468598e+00
   1.8587061e+01   2.0495455e+01  -7.7904813e+00
   1.8404589e+01   2.0524547e+01  -7.9608820e+00
   1.8248895e+01   2.0389228e+01  -7.8172604e+00
   1.8338085e+01   2.0755113e+01  -8.0356875e+00
   1.8454055e+01   2.0956586e+01  -7.9400925e+00
   1.8231857e+01   2.1051832e+01  -7.8712765e+00
   1.8115888e+01   2.0850359e+01  -7.9668716e+00
   1.8199429e+01   1.9957188e+01  -7.8380499e+00
   1.8132926e+01   2.0187754e+01  -7.9128555e+00
   1.8848983e+01   2.0334055e+01  -8.0985139e+00
   1.8915486e+01   2.0103490e+01  -8.0237084e+00
   1.8875762e+01   2.0169644e+01  -7.7844918e+00
   1.8809259e+01   2.0400209e+01  -7.8592973e+00
   1.8643823e+01   1.9766696e+01  -7.9756819e+00
   1.8799517e+01   1.9902016e+01  -8.1193034e+00
   1.8617044e+01   1.9931107e+01  -8.2897041e+00
   1.8461350e+01   1.9795788e+01  -8.1460825e+00
   1.8666510e+01   2.0363147e+01  -8.2689146e+00
   1.8444313e+01   2.0458393e+01  -8.2000986e+00
   1.8763127e+01   2.1266238e+01  -5.9935910e+00
   1.8607433e+01   2.1130919e+01  -5.8499694e+00
   1.8975582e+01   2.0672798e+01  -6.3224130e+00
   1.8819889e+01   2.0537479e+01  -6.1787915e+00
   1.8909079e+01   2.0903364e+01  -6.3972186e+00
   1.9025048e+01   2.1104838e+01  -6.3016235e+00
   1.8802851e+01   2.1200084e+01  -6.2328076e+00
   1.8686882e+01   2.0998610e+01  -6.3284026e+00
   1.8952896e+01   2.0076348e+01  -6.0291804e+00
   1.9387548e+01   1.9387662e+01  -6.4268184e+00
   1.9281320e+01   1.9684382e+01  -6.2624074e+00
   1.9165351e+01   1.9482908e+01  -6.3580024e+00
   1.9419977e+01   2.0482306e+01  -6.4600450e+00
   1.9214817e+01   1.9914947e+01  -6.3372129e+00
   1.9370511e+01   2.0050267e+01  -6.4808345e+00
   1.9188038e+01   2.0079359e+01  -6.6512351e+00
   1.9032344e+01   1.9944039e+01  -6.5076136e+00
   1.9121534e+01   2.0309924e+01  -6.7260407e+00
   1.9237504e+01   2.0511398e+01  -6.6304456e+00
   1.9015307e+01   2.0606644e+01  -6.5616296e+00
   1.8899337e+01   2.0405170e+01  -6.6572247e+00
   1.9575670e+01   2.0617626e+01  -6.6036665e+00
   1.9632432e+01   1.9888866e+01  -6.7888671e+00
   1.9592708e+01   1.9955021e+01  -6.5496505e+00
   1.9333990e+01   1.9716484e+01  -7.0548628e+00
   1.9449959e+01   1.9917958e+01  -6.9592677e+00
   1.9227762e+01   2.0013204e+01  -6.8904517e+00
   1.9111793e+01   1.9811730e+01  -6.9860468e+00
   1.9904095e+01   2.0225660e+01  -6.8368935e+00
   1.9788126e+01   2.0024186e+01  -6.9324886e+00
   1.9008011e+01   2.1767442e+01  -6.3556396e+00
   1.8736348e+01   2.1430649e+01  -6.3076131e+00
   1.8892041e+01   2.1565969e+01  -6.4512347e+00
   1.8709569e+01   2.1595060e+01  -6.6216353e+00
   1.8553875e+01   2.1459741e+01  -6.4780138e+00
   1.9199718e+01   2.1947337e+01  -6.6741936e+00
   1.9062062e+01   2.2069140e+01  -6.5986828e+00
   1.9153963e+01   2.1404568e+01  -6.7592672e+00
   1.9220466e+01   2.1174003e+01  -6.6844617e+00
   1.9180742e+01   2.1240157e+01  -6.4452451e+00
   1.9114239e+01   2.1470723e+01  -6.5200506e+00
   1.8948803e+01   2.0837209e+01  -6.6364352e+00
   1.9104497e+01   2.0972529e+01  -6.7800567e+00
   1.8922024e+01   2.1001620e+01  -6.9504574e+00
   1.8766330e+01   2.0866301e+01  -6.8068358e+00
   1.8855521e+01   2.1232186e+01  -7.0252629e+00
   1.8971490e+01   2.1433660e+01  -6.9296679e+00
   1.8749293e+01   2.1528906e+01  -6.8608519e+00
   1.8633324e+01   2.1327432e+01  -6.9564470e+00
   1.9442663e+01   2.1078757e+01  -6.7532777e+00
   1.9551244e+01   2.1390269e+01  -7.0489691e+00
   1.9602788e+01   2.1570266e+01  -6.7895474e+00
   1.9333146e+01   2.1804193e+01  -6.7902272e+00
   1.9260598e+01   2.1601810e+01  -6.9738810e+00
   1.8682790e+01   2.1759471e+01  -6.9356575e+00
   1.8858001e+01   2.1837422e+01  -7.1099738e+00
   1.8500317e+01   2.1788563e+01  -7.1060581e+00
   1.8473531e+01   2.2040961e+01  -7.3123592e+00
   1.9203773e+01   2.1860899e+01  -6.8273913e+00
   1.9004889e+01   2.1665589e+01  -7.3478904e+00
   1.9301458e+01   2.1567211e+01  -7.1261141e+00
   1.9150309e+01   2.1799321e+01  -7.0173220e+00
   1.8895245e+01   2.1166031e+01  -7.2644795e+00
   1.9114211e+01   2.1262764e+01  -7.4824437e+00
   1.8712772e+01   2.1195123e+01  -7.4348802e+00
   1.8746761e+01   2.1512174e+01  -7.6489699e+00
   1.8872897e+01   2.1686633e+01  -7.4711500e+00
   1.8540393e+01   2.1658713e+01  -7.5419093e+00
   1.9515448e+01   2.1328832e+01  -7.2065103e+00
   1.9379452e+01   2.1350514e+01  -7.3335093e+00
   1.9366418e+01   2.0811128e+01  -7.0880893e+00
   1.9432922e+01   2.0580563e+01  -7.0132838e+00
   1.9393198e+01   2.0646717e+01  -6.7740672e+00
   1.9326694e+01   2.0877283e+01  -6.8488727e+00
   1.9161259e+01   2.0243770e+01  -6.9652573e+00
   1.9316953e+01   2.0379089e+01  -7.1088788e+00
   1.9134480e+01   2.0408181e+01  -7.2792795e+00
   1.8978786e+01   2.0272861e+01  -7.1356579e+00
   1.9067976e+01   2.0638746e+01  -7.3540850e+00
   1.9183946e+01   2.0840220e+01  -7.2584900e+00
   1.8961749e+01   2.0935466e+01  -7.1896740e+00
   1.8845779e+01   2.0733992e+01  -7.2852690e+00
   1.9837592e+01   2.0456225e+01  -6.9116991e+00
   1.9993285e+01   2.0591545e+01  -7.0553206e+00
   1.9810813e+01   2.0620636e+01  -7.2257213e+00
   1.9655119e+01   2.0485317e+01  -7.0820997e+00
   1.9744309e+01   2.0851202e+01  -7.3005268e+00
   1.9925878e+01   2.1086465e+01  -7.2694097e+00
   1.9634058e+01   2.1242363e+01  -7.1629014e+00
   1.9522112e+01   2.0946448e+01  -7.2317109e+00
   1.9578874e+01   2.0217688e+01  -7.4169114e+00
   1.9605653e+01   2.0053277e+01  -7.1028892e+00
   1.9539150e+01   2.0283843e+01  -7.1776948e+00
   1.9280432e+01   2.0045306e+01  -7.6829071e+00
   1.9396401e+01   2.0246780e+01  -7.5873120e+00
   1.9174204e+01   2.0342026e+01  -7.5184961e+00
   1.9058235e+01   2.0140552e+01  -7.6140911e+00
   1.9850537e+01   2.0554482e+01  -7.4649379e+00
   1.9734568e+01   2.0353008e+01  -7.5605329e+00
   1.9378460e+01   2.1173740e+01  -7.7806116e+00
   1.9379364e+01   2.0909385e+01  -7.6413281e+00
   1.9339639e+01   2.0975539e+01  -7.4021115e+00
   1.9315589e+01   2.1293136e+01  -7.4603010e+00
   1.9107701e+01   2.0572592e+01  -7.5933016e+00
   1.9263394e+01   2.0707911e+01  -7.7369232e+00
   1.9080922e+01   2.0737003e+01  -7.9073238e+00
   1.8925228e+01   2.0601683e+01  -7.7637023e+00
   1.9025429e+01   2.0976467e+01  -7.9928794e+00
   1.8803232e+01   2.1071713e+01  -7.9240634e+00
   2.0003487e+01   2.1005844e+01  -7.3662813e+00
   1.9784034e+01   2.0785047e+01  -7.5397434e+00
   1.9601561e+01   2.0814139e+01  -7.7101441e+00
   1.9456069e+01   2.1093119e+01  -7.8774832e+00
   1.9525316e+01   2.0546511e+01  -8.0449557e+00
   1.9552095e+01   2.0382100e+01  -7.7309336e+00
   1.9485591e+01   2.0612665e+01  -7.8057391e+00
   1.9342843e+01   2.0575602e+01  -8.2153564e+00
   1.9120646e+01   2.0670848e+01  -8.1465404e+00
   1.9004677e+01   2.0469374e+01  -8.2421355e+00
   2.0106579e+01   2.0769718e+01  -7.5682752e+00
   1.9609284e+01   2.0726994e+01  -8.1967513e+00
   2.0197325e+01   2.0985540e+01  -7.2061999e+00
   2.0233987e+01   2.0855174e+01  -7.4021644e+00
   2.0183506e+01   2.0863222e+01  -7.4493054e+00
   1.8449477e+01   2.1645755e+01  -7.8175320e+00
   1.8298111e+01   2.1877267e+01  -7.7086099e+00
   1.8165354e+01   2.1282398e+01  -7.9460821e+00
   1.8321048e+01   2.1417717e+01  -8.0897036e+00
   1.8660483e+01   2.1034651e+01  -8.3336806e+00
   1.8620759e+01   2.1100805e+01  -8.0944640e+00
   1.8554255e+01   2.1331371e+01  -8.1692696e+00
   1.8822204e+01   2.0498466e+01  -8.4125361e+00
   1.8755700e+01   2.0729031e+01  -8.4873417e+00
   1.9065153e+01   2.0910313e+01  -8.2320960e+00
   1.8882680e+01   2.0939405e+01  -8.4024966e+00
   1.9376688e+01   2.0886085e+01  -8.2498778e+00
   1.8107746e+01   1.7500662e+01  -5.1931220e+00
   1.8041243e+01   1.7731228e+01  -5.2679276e+00
   1.8290219e+01   1.7471571e+01  -5.0227214e+00
   1.8470424e+01   1.7913141e+01  -5.5110731e+00
   1.8248226e+01   1.8008387e+01  -5.4422571e+00
   1.8132257e+01   1.7806913e+01  -5.5378522e+00
   1.8040799e+01   1.7911690e+01  -5.9781774e+00
   1.8001074e+01   1.7977844e+01  -5.7389608e+00
   1.8626117e+01   1.8048460e+01  -5.6546947e+00
   1.8559614e+01   1.8279026e+01  -5.7295002e+00
   1.8416865e+01   1.8241963e+01  -6.1391175e+00
   1.8194668e+01   1.8337209e+01  -6.0703015e+00
   1.8078699e+01   1.8135735e+01  -6.1658965e+00
   1.8871001e+01   1.8549665e+01  -6.0167433e+00
   1.7193114e+01   1.8116782e+01  -6.7038775e+00
   1.7259618e+01   1.7886217e+01  -6.6290720e+00
   1.7219893e+01   1.7952371e+01  -6.3898554e+00
   1.7153390e+01   1.8182937e+01  -6.4646609e+00
   1.6946406e+01   1.7905778e+01  -6.2903314e+00
   1.6830437e+01   1.7704304e+01  -6.3859264e+00
   1.7869447e+01   1.8329238e+01  -6.6503193e+00
   1.7935950e+01   1.8098672e+01  -6.5755138e+00
   1.7896226e+01   1.8164827e+01  -6.3362972e+00
   1.7829723e+01   1.8395392e+01  -6.4111027e+00
   1.7664287e+01   1.7761879e+01  -6.5274873e+00
   1.7637508e+01   1.7926290e+01  -6.8415095e+00
   1.7481815e+01   1.7790971e+01  -6.6978879e+00
   1.7675853e+01   1.7969873e+01  -6.3189787e+00
   1.7453656e+01   1.8065119e+01  -6.2501627e+00
   1.7571005e+01   1.8156856e+01  -6.9163150e+00
   1.7686974e+01   1.8358329e+01  -6.8207200e+00
   1.7464777e+01   1.8453576e+01  -6.7519040e+00
   1.7348808e+01   1.8252102e+01  -6.8474991e+00
   1.7815889e+01   1.8658060e+01  -7.2783637e+00
   1.7882392e+01   1.8427494e+01  -7.2035581e+00
   1.7842668e+01   1.8493649e+01  -6.9643415e+00
   1.7776165e+01   1.8724214e+01  -7.0391471e+00
   1.8506056e+01   1.8607848e+01  -6.3575446e+00
   1.8363307e+01   1.8570785e+01  -6.7671618e+00
   1.8141110e+01   1.8666031e+01  -6.6983458e+00
   1.8025141e+01   1.8464557e+01  -6.7939409e+00
   1.8817443e+01   1.8878487e+01  -6.6447876e+00
   1.8452497e+01   1.8936670e+01  -6.9855889e+00
   1.8087552e+01   1.8994853e+01  -7.3263902e+00
   1.7971583e+01   1.8793379e+01  -7.4219852e+00
   1.8398939e+01   1.9265492e+01  -7.6136332e+00
   1.9372168e+01   2.1865430e+01  -6.6361747e+00
   1.9283915e+01   2.1949602e+01  -6.5785853e+00
   1.9834067e+01   2.1208011e+01  -6.9185218e+00
   1.9669853e+01   2.1303800e+01  -7.0053602e+00
   1.9661629e+01   2.1175489e+01  -6.9712418e+00
   1.9569473e+01   2.1215879e+01  -6.8656611e+00
   1.9480221e+01   2.1469781e+01  -7.0462194e+00
   1.9506674e+01   2.1423702e+01  -6.8970298e+00
   1.9356713e+01   2.1748374e+01  -6.8663986e+00
   1.9409475e+01   2.1663709e+01  -6.7519696e+00
   1.9313361e+01   2.1517145e+01  -6.8594519e+00
   1.9351938e+01   2.1559163e+01  -7.0789731e+00
   1.8976489e+01   2.1982926e+01  -6.8826535e+00
   1.8878214e+01   2.2014283e+01  -6.9574458e+00
   1.8767115e+01   2.2061906e+01  -6.9230378e+00
   1.8773452e+01   2.1898852e+01  -7.0089475e+00
   1.8915986e+01   2.1938159e+01  -7.0621763e+00
   1.8571469e+01   2.1897325e+01  -7.2563744e+00
   1.8760070e+01   2.1893070e+01  -7.2736797e+00
   1.8675521e+01   2.1954501e+01  -7.1726534e+00
   1.9112537e+01   2.1875445e+01  -6.9125916e+00
   1.9279561e+01   2.1484180e+01  -7.2550080e+00
   1.9199062e+01   2.1462476e+01  -7.3578944e+00
   1.9091248e+01   2.1489934e+01  -7.2849721e+00
   1.9210118e+01   2.1609858e+01  -7.0210220e+00
   1.9080407e+01   2.1554285e+01  -7.0769936e+00
   1.9052033e+01   2.1830678e+01  -7.0921144e+00
   1.8994049e+01   2.1729941e+01  -7.1399119e+00
   1.9022055e+01   2.1303154e+01  -7.3768630e+00
   1.9168911e+01   2.1383665e+01  -7.4731604e+00
   1.8826112e+01   2.1317138e+01  -7.5818557e+00
   1.9058467e+01   2.1331664e+01  -7.6428088e+00
   1.8966311e+01   2.1372055e+01  -7.5372280e+00
   1.8801755e+01   2.1631272e+01  -7.6362410e+00
   1.8903512e+01   2.1579878e+01  -7.5685968e+00
   1.8571820e+01   2.1833630e+01  -7.4530090e+00
   1.8631949e+01   2.1616663e+01  -7.6471314e+00
   1.9848031e+01   2.1018805e+01  -7.1975990e+00
   1.9625834e+01   2.1114051e+01  -7.1287830e+00
   1.9300613e+01   2.1106080e+01  -7.7088009e+00
   1.9260888e+01   2.1172235e+01  -7.4695843e+00
   1.9129150e+01   2.1144071e+01  -7.8899515e+00
   1.8876846e+01   2.1259883e+01  -7.8318223e+00
   1.9033682e+01   2.1279126e+01  -7.8111000e+00
   2.0026340e+01   2.0954407e+01  -7.4508209e+00
   1.9904589e+01   2.0856178e+01  -7.7079815e+00
   1.9949413e+01   2.0860903e+01  -7.5697908e+00
   1.9654803e+01   2.0965947e+01  -7.8753387e+00
   1.9725820e+01   2.0862528e+01  -7.8349453e+00
   1.9772239e+01   2.0755270e+01  -7.9956564e+00
   1.8424170e+01   2.1583662e+01  -7.9864171e+00
   1.8357920e+01   2.1687805e+01  -7.7123099e+00
   1.8797496e+01   2.1454919e+01  -7.8989365e+00
   1.9433506e+01   2.0714983e+01  -8.2886464e+00
