   1.9076161e+01   1.9117023e+01  -6.1395753e+00
   1.8960191e+01   1.8915549e+01  -6.2351704e+00
   1.8777719e+01   1.8944641e+01  -6.4055710e+00
   1.9587947e+01   1.8335041e+01  -4.7819020e+00
   1.9743641e+01   1.8470361e+01  -4.9255235e+00
   1.9561168e+01   1.8499452e+01  -5.0959242e+00
   1.9405474e+01   1.8364133e+01  -4.9523026e+00
   1.9494665e+01   1.8730018e+01  -5.1707297e+00
   2.0170998e+01   1.8942474e+01  -5.1171716e+00
   1.9948800e+01   1.9037720e+01  -5.0483556e+00
   1.9739549e+01   1.9231222e+01  -5.5327784e+00
   1.9806052e+01   1.9000657e+01  -5.4579728e+00
   1.9766328e+01   1.9066811e+01  -5.2187562e+00
   1.9534389e+01   1.8663864e+01  -5.4099463e+00
   1.9690083e+01   1.8799183e+01  -5.5535679e+00
   1.9507610e+01   1.8828275e+01  -5.7239685e+00
   1.9351916e+01   1.8692955e+01  -5.5803470e+00
   1.9441106e+01   1.9058840e+01  -5.7987741e+00
   1.9557076e+01   1.9260314e+01  -5.7031790e+00
   2.0415882e+01   1.9443678e+01  -5.4792202e+00
   2.0482385e+01   1.9213112e+01  -5.4044146e+00
   2.0376157e+01   1.9509832e+01  -5.2400036e+00
   2.0210722e+01   1.8876319e+01  -5.3563882e+00
   2.0366416e+01   1.9011638e+01  -5.5000097e+00
   2.0183943e+01   1.9040730e+01  -5.6704103e+00
   2.0028249e+01   1.8905411e+01  -5.5267888e+00
   2.0117439e+01   1.9271296e+01  -5.7452159e+00
   2.0233409e+01   1.9472769e+01  -5.6496208e+00
   2.0011212e+01   1.9568015e+01  -5.5808049e+00
   1.9895242e+01   1.9366542e+01  -5.6763999e+00
   2.0581317e+01   2.0077191e+01  -5.3628356e+00
   2.0860276e+01   1.9253186e+01  -5.6168521e+00
   2.0704582e+01   1.9117866e+01  -5.4732306e+00
   2.0793772e+01   1.9483751e+01  -5.6916577e+00
   2.0909742e+01   1.9685225e+01  -5.5960626e+00
   2.0687545e+01   1.9780471e+01  -5.5272467e+00
   2.0571575e+01   1.9578997e+01  -5.6228417e+00
   2.0100402e+01   1.9933900e+01  -5.7992320e+00
   1.9917929e+01   1.9962992e+01  -5.9696326e+00
   1.9685990e+01   1.9560044e+01  -6.1608227e+00
   1.9752494e+01   1.9329479e+01  -6.0860172e+00
   1.9712769e+01   1.9395633e+01  -5.8468005e+00
   1.9480831e+01   1.8992686e+01  -6.0379907e+00
   1.9636524e+01   1.9128005e+01  -6.1816122e+00
   1.9454052e+01   1.9157097e+01  -6.3520128e+00
   1.9298358e+01   1.9021777e+01  -6.2083913e+00
   1.9387548e+01   1.9387662e+01  -6.4268184e+00
   1.9503518e+01   1.9589136e+01  -6.3312233e+00
   2.0362323e+01   1.9772500e+01  -6.1072645e+00
   2.0428827e+01   1.9541934e+01  -6.0324590e+00
   2.0389102e+01   1.9608089e+01  -5.7932424e+00
   2.0322599e+01   1.9838654e+01  -5.8680479e+00
   2.0157164e+01   1.9205141e+01  -5.9844325e+00
   2.0312857e+01   1.9340461e+01  -6.1280540e+00
   2.0130385e+01   1.9369552e+01  -6.2984547e+00
   1.9974691e+01   1.9234233e+01  -6.1548331e+00
   2.0063881e+01   1.9600118e+01  -6.3732602e+00
   2.0179851e+01   1.9801592e+01  -6.2776652e+00
   1.9957653e+01   1.9896838e+01  -6.2088492e+00
   1.9841684e+01   1.9695364e+01  -6.3044443e+00
   2.0162813e+01   2.0464196e+01  -6.3316812e+00
   1.9891150e+01   2.0127403e+01  -6.2836548e+00
   2.0046844e+01   2.0262722e+01  -6.4272763e+00
   1.9864371e+01   2.0291814e+01  -6.5976769e+00
   1.9632432e+01   1.9888866e+01  -6.7888671e+00
   1.9698936e+01   1.9658301e+01  -6.7140615e+00
   1.9659211e+01   1.9724455e+01  -6.4748449e+00
   1.9592708e+01   1.9955021e+01  -6.5496505e+00
   1.9427273e+01   1.9321508e+01  -6.6660350e+00
   1.9582966e+01   1.9456827e+01  -6.8096566e+00
   1.9244800e+01   1.9350599e+01  -6.8364356e+00
   1.9449959e+01   1.9917958e+01  -6.9592677e+00
   2.0308765e+01   2.0101322e+01  -6.7353089e+00
   2.0375269e+01   1.9870756e+01  -6.6605033e+00
   2.0335544e+01   1.9936911e+01  -6.4212867e+00
   2.0269041e+01   2.0167476e+01  -6.4960923e+00
   2.0103606e+01   1.9533963e+01  -6.6124768e+00
   2.0259299e+01   1.9669283e+01  -6.7560984e+00
   2.0076826e+01   1.9698374e+01  -6.9264990e+00
   1.9921133e+01   1.9563055e+01  -6.7828775e+00
   2.0010323e+01   1.9928940e+01  -7.0013046e+00
   2.0126292e+01   2.0130414e+01  -6.9057095e+00
   1.9904095e+01   2.0225660e+01  -6.8368935e+00
   1.9788126e+01   2.0024186e+01  -6.9324886e+00
   2.0826201e+01   2.0578395e+01  -5.7248843e+00
   2.0892704e+01   2.0347830e+01  -5.6500787e+00
   2.0621041e+01   2.0011037e+01  -5.6020522e+00
   2.0776735e+01   2.0146356e+01  -5.7456738e+00
   2.0594262e+01   2.0175448e+01  -5.9160744e+00
   2.0438568e+01   2.0040128e+01  -5.7724529e+00
   2.0527759e+01   2.0406013e+01  -5.9908800e+00
   2.0643728e+01   2.0607487e+01  -5.8952849e+00
   2.1270595e+01   2.0387903e+01  -5.8625162e+00
   2.1114901e+01   2.0252584e+01  -5.7188947e+00
   2.1204092e+01   2.0618469e+01  -5.9373218e+00
   2.0981894e+01   2.0713715e+01  -5.8685058e+00
   2.1038656e+01   1.9984955e+01  -6.0537064e+00
   2.1105160e+01   1.9754390e+01  -5.9789008e+00
   2.1065435e+01   1.9820544e+01  -5.7396842e+00
   2.0998932e+01   2.0051110e+01  -5.8144897e+00
   2.0833497e+01   1.9417597e+01  -5.9308743e+00
   2.0989190e+01   1.9552916e+01  -6.0744959e+00
   2.0806718e+01   1.9582008e+01  -6.2448965e+00
   2.0651024e+01   1.9446688e+01  -6.1012749e+00
   2.0740214e+01   1.9812573e+01  -6.3197020e+00
   2.0856184e+01   2.0014047e+01  -6.2241070e+00
   2.0633986e+01   2.0109293e+01  -6.1552910e+00
   2.0518017e+01   1.9907819e+01  -6.2508861e+00
   2.1483051e+01   1.9794463e+01  -6.1913383e+00
   2.1327357e+01   1.9659144e+01  -6.0477168e+00
   2.1416547e+01   2.0025029e+01  -6.2661439e+00
   2.1532516e+01   2.0226503e+01  -6.1705488e+00
   2.1310319e+01   2.0321749e+01  -6.1017328e+00
   2.1194350e+01   2.0120275e+01  -6.1973279e+00
   2.0763185e+01   2.0894470e+01  -6.3439081e+00
   2.0839146e+01   2.0676652e+01  -6.2781230e+00
   2.0799422e+01   2.0742806e+01  -6.0389064e+00
   2.0723461e+01   2.0960624e+01  -6.1046915e+00
   2.0567483e+01   2.0339859e+01  -6.2300966e+00
   2.0723177e+01   2.0475178e+01  -6.3737181e+00
   2.0540704e+01   2.0504270e+01  -6.5441187e+00
   2.0385010e+01   2.0368950e+01  -6.4004972e+00
   2.0485565e+01   2.0743622e+01  -6.6292435e+00
   2.0592077e+01   2.0932349e+01  -6.5246280e+00
   2.0263368e+01   2.0838869e+01  -6.5604276e+00
   2.1243816e+01   2.0552314e+01  -6.1765384e+00
   2.1061343e+01   2.0581406e+01  -6.3469390e+00
   2.0985098e+01   2.0313778e+01  -6.6817507e+00
   2.1051602e+01   2.0083212e+01  -6.6069451e+00
   2.1011877e+01   2.0149366e+01  -6.3677285e+00
   2.0945374e+01   2.0379932e+01  -6.4425341e+00
   2.0779939e+01   1.9746419e+01  -6.5589187e+00
   2.0935632e+01   1.9881738e+01  -6.7025402e+00
   2.0753159e+01   1.9910830e+01  -6.8729408e+00
   2.0597466e+01   1.9775510e+01  -6.7293193e+00
   2.0686656e+01   2.0141395e+01  -6.9477464e+00
   2.0802625e+01   2.0342869e+01  -6.8521513e+00
   2.0580428e+01   2.0438115e+01  -6.7833353e+00
   2.0464459e+01   2.0236641e+01  -6.8789304e+00
   2.1506082e+01   2.0415204e+01  -6.5734849e+00
   2.1594335e+01   2.0331033e+01  -6.6310739e+00
   2.1707728e+01   2.0304453e+01  -6.3448651e+00
   2.1566361e+01   2.0536985e+01  -6.2050702e+00
   2.1456271e+01   1.9958874e+01  -6.5053605e+00
   2.1273799e+01   1.9987966e+01  -6.6757611e+00
   2.1361388e+01   2.0280186e+01  -6.9563366e+00
   2.1414846e+01   2.0429750e+01  -6.6586852e+00
   2.1069066e+01   2.0494261e+01  -6.8335463e+00
   2.0120620e+01   2.0801806e+01  -6.9700448e+00
   1.9837592e+01   2.0456225e+01  -6.9116991e+00
   1.9993285e+01   2.0591545e+01  -7.0553206e+00
   2.0255207e+01   2.0430144e+01  -7.3633532e+00
   2.0321710e+01   2.0199579e+01  -7.2885476e+00
   2.0281986e+01   2.0265733e+01  -7.0493310e+00
   2.0215483e+01   2.0496298e+01  -7.1241366e+00
   2.0050047e+01   1.9862785e+01  -7.2405212e+00
   2.0205741e+01   1.9998105e+01  -7.3841427e+00
   2.0525289e+01   2.0677468e+01  -6.8684602e+00
   2.0342817e+01   2.0706560e+01  -7.0388608e+00
   2.0270658e+01   2.0926054e+01  -7.2435985e+00
   2.0197325e+01   2.0985540e+01  -7.2061999e+00
   2.0776191e+01   2.0531571e+01  -7.2550875e+00
   2.0905564e+01   2.0474866e+01  -7.2179229e+00
   2.0977837e+01   2.0420820e+01  -7.0264677e+00
   2.0836470e+01   2.0653352e+01  -6.8866727e+00
   2.0726380e+01   2.0075241e+01  -7.1869630e+00
   2.0543908e+01   2.0104332e+01  -7.3573636e+00
   2.0559771e+01   2.0441716e+01  -7.6461132e+00
   2.0684955e+01   2.0546117e+01  -7.3402878e+00
   2.0339175e+01   2.0610628e+01  -7.5151488e+00
   2.1336082e+01   2.0218093e+01  -7.1252217e+00
   2.1204090e+01   2.0239136e+01  -7.2484813e+00
   2.0233987e+01   2.0855174e+01  -7.4021644e+00
   2.2019554e+01   2.0208983e+01  -6.2829082e+00
   2.1798957e+01   2.0377895e+01  -6.1519438e+00
   2.2065973e+01   2.0101726e+01  -6.4436192e+00
   2.1933981e+01   2.0122770e+01  -6.5668788e+00
   1.9329229e+01   1.8096505e+01  -5.2871143e+00
   1.9395733e+01   1.7865939e+01  -5.2123087e+00
   1.9356008e+01   1.7932094e+01  -4.9730921e+00
   1.9289505e+01   1.8162659e+01  -5.0478977e+00
   1.9030787e+01   1.7924123e+01  -5.5531100e+00
   1.9146757e+01   1.8125596e+01  -5.4575149e+00
   1.8924559e+01   1.8220842e+01  -5.3886990e+00
   1.8808590e+01   1.8019369e+01  -5.4842940e+00
   1.9541685e+01   1.7503065e+01  -5.6159364e+00
   1.8599338e+01   1.8212871e+01  -5.9687168e+00
   1.8665842e+01   1.7982306e+01  -5.8939113e+00
   1.8626117e+01   1.8048460e+01  -5.6546947e+00
   1.8300896e+01   1.8040489e+01  -6.2347125e+00
   1.8416865e+01   1.8241963e+01  -6.1391175e+00
   1.9275671e+01   1.8425327e+01  -5.9151586e+00
   1.9342175e+01   1.8194761e+01  -5.8403531e+00
   1.9302450e+01   1.8260916e+01  -5.6011365e+00
   1.9235947e+01   1.8491481e+01  -5.6759420e+00
   1.9070512e+01   1.7857968e+01  -5.7923266e+00
   1.9226205e+01   1.7993288e+01  -5.9359481e+00
   1.9043732e+01   1.8022379e+01  -6.1063488e+00
   1.8888039e+01   1.7887060e+01  -5.9627272e+00
   1.8977229e+01   1.8252945e+01  -6.1811543e+00
   1.9093198e+01   1.8454418e+01  -6.0855593e+00
   1.8871001e+01   1.8549665e+01  -6.0167433e+00
   1.8755032e+01   1.8348191e+01  -6.1123384e+00
   1.9488127e+01   1.7831887e+01  -6.2439807e+00
   1.9554630e+01   1.7601322e+01  -6.1691751e+00
   1.9514906e+01   1.7667476e+01  -5.9299585e+00
   1.9448402e+01   1.7898041e+01  -6.0047641e+00
   1.9189685e+01   1.7659505e+01  -6.5099764e+00
   1.9305654e+01   1.7860979e+01  -6.4143813e+00
   1.9083457e+01   1.7956225e+01  -6.3455654e+00
   1.8967487e+01   1.7754751e+01  -6.4411604e+00
   1.8572559e+01   1.8377282e+01  -6.2827390e+00
   1.8506056e+01   1.8607848e+01  -6.3575446e+00
   1.9222113e+01   1.8754149e+01  -6.5432030e+00
   1.9288616e+01   1.8523583e+01  -6.4683974e+00
   1.9248892e+01   1.8589738e+01  -6.2291808e+00
   1.9182389e+01   1.8820303e+01  -6.3039864e+00
   1.9016953e+01   1.8186790e+01  -6.4203709e+00
   1.9172647e+01   1.8322110e+01  -6.5639925e+00
   1.8990174e+01   1.8351201e+01  -6.7343931e+00
   1.8834481e+01   1.8215882e+01  -6.5907716e+00
   1.9039640e+01   1.8783241e+01  -6.7136036e+00
   1.8785015e+01   1.7783843e+01  -6.6115611e+00
   1.9434569e+01   1.8160709e+01  -6.8720251e+00
   1.9501072e+01   1.7930144e+01  -6.7972195e+00
   1.9461348e+01   1.7996298e+01  -6.5580029e+00
   1.9394844e+01   1.8226864e+01  -6.6328084e+00
   1.9229409e+01   1.7593350e+01  -6.7491930e+00
   1.9385103e+01   1.7728670e+01  -6.8928146e+00
   1.9195334e+01   1.8918560e+01  -6.8572251e+00
   1.9647024e+01   1.7567269e+01  -7.2008471e+00
   1.9713528e+01   1.7336704e+01  -7.1260416e+00
   1.9673803e+01   1.7402858e+01  -6.8868250e+00
   1.9607300e+01   1.7633424e+01  -6.9616305e+00
   1.9597558e+01   1.7135230e+01  -7.2216366e+00
   1.9453430e+01   1.7207905e+01  -6.8695065e+00
   1.9231233e+01   1.7303151e+01  -6.8006905e+00
   1.9538481e+01   1.7903002e+01  -4.8026915e+00
   1.9866906e+01   1.7511036e+01  -5.0359185e+00
   2.0005562e+01   1.8308960e+01  -5.2335561e+00
   2.0072066e+01   1.8078395e+01  -5.1587505e+00
   1.9965838e+01   1.8375115e+01  -4.9943395e+00
   1.9800403e+01   1.7741602e+01  -5.1107241e+00
   1.9956096e+01   1.7876921e+01  -5.2543456e+00
   1.9773624e+01   1.7906013e+01  -5.4247462e+00
   1.9617930e+01   1.7770693e+01  -5.2811247e+00
   1.9707120e+01   1.8136578e+01  -5.4995518e+00
   1.9823090e+01   1.8338052e+01  -5.4039567e+00
   1.9600892e+01   1.8433298e+01  -5.3351408e+00
   1.9484923e+01   1.8231824e+01  -5.4307358e+00
   2.0449957e+01   1.8118468e+01  -5.3711881e+00
   2.0383453e+01   1.8349034e+01  -5.4459936e+00
   2.0499422e+01   1.8550508e+01  -5.3503986e+00
   2.0277225e+01   1.8645754e+01  -5.2815826e+00
   2.0161256e+01   1.8444280e+01  -5.3771777e+00
   2.0218018e+01   1.7715521e+01  -5.5623782e+00
   2.0284521e+01   1.7484955e+01  -5.4875726e+00
   2.0244797e+01   1.7551110e+01  -5.2483560e+00
   2.0178294e+01   1.7781675e+01  -5.3231616e+00
   2.0168552e+01   1.7283481e+01  -5.5831677e+00
   1.9986079e+01   1.7312573e+01  -5.7535683e+00
   1.9919576e+01   1.7543138e+01  -5.8283739e+00
   2.0035545e+01   1.7744612e+01  -5.7327788e+00
   1.9813348e+01   1.7839858e+01  -5.6639628e+00
   1.9697379e+01   1.7638384e+01  -5.7595579e+00
   2.0662412e+01   1.7525028e+01  -5.7000101e+00
   2.0506718e+01   1.7389709e+01  -5.5563886e+00
   2.0595909e+01   1.7755594e+01  -5.7748157e+00
   2.0711878e+01   1.7957068e+01  -5.6792206e+00
   2.0489681e+01   1.8052314e+01  -5.6104047e+00
   2.0373712e+01   1.7850840e+01  -5.7059997e+00
   1.9952004e+01   1.8637782e+01  -5.8616005e+00
   2.0018508e+01   1.8407217e+01  -5.7867949e+00
   1.9978783e+01   1.8473371e+01  -5.5475783e+00
   1.9912280e+01   1.8703937e+01  -5.6223839e+00
   1.9746845e+01   1.8070424e+01  -5.7387684e+00
   1.9902538e+01   1.8205743e+01  -5.8823900e+00
   1.9720065e+01   1.8234835e+01  -6.0527906e+00
   1.9564372e+01   1.8099515e+01  -5.9091690e+00
   1.9653562e+01   1.8465400e+01  -6.1275961e+00
   1.9769531e+01   1.8666874e+01  -6.0320011e+00
   1.9547334e+01   1.8762120e+01  -5.9631851e+00
   1.9431365e+01   1.8560646e+01  -6.0587802e+00
   2.0628337e+01   1.8850238e+01  -5.8080423e+00
   2.0694841e+01   1.8619673e+01  -5.7332367e+00
   2.0655116e+01   1.8685827e+01  -5.4940201e+00
   2.0588613e+01   1.8916392e+01  -5.5688257e+00
   2.0423177e+01   1.8282879e+01  -5.6852102e+00
   2.0578871e+01   1.8418199e+01  -5.8288318e+00
   2.0396398e+01   1.8447290e+01  -5.9992324e+00
   2.0240705e+01   1.8311971e+01  -5.8556109e+00
   2.0329895e+01   1.8677856e+01  -6.0740380e+00
   2.0445864e+01   1.8879330e+01  -5.9784429e+00
   2.0223667e+01   1.8974576e+01  -5.9096269e+00
   2.0107698e+01   1.8773102e+01  -6.0052220e+00
   2.0164460e+01   1.8044343e+01  -6.1904225e+00
   2.0230963e+01   1.7813777e+01  -6.1156170e+00
   2.0191239e+01   1.7879932e+01  -5.8764004e+00
   2.0124735e+01   1.8110497e+01  -5.9512059e+00
   1.9959300e+01   1.7476984e+01  -6.0675905e+00
   2.0114994e+01   1.7612303e+01  -6.2112120e+00
   1.9932521e+01   1.7641395e+01  -6.3816127e+00
   1.9776827e+01   1.7506076e+01  -6.2379911e+00
   1.9866018e+01   1.7871960e+01  -6.4564182e+00
   1.9981987e+01   1.8073434e+01  -6.3608232e+00
   1.9759790e+01   1.8168680e+01  -6.2920072e+00
   1.9643820e+01   1.7967206e+01  -6.3876023e+00
   2.0840793e+01   1.8256798e+01  -6.1368643e+00
   2.0907296e+01   1.8026233e+01  -6.0620588e+00
   2.0867572e+01   1.8092387e+01  -5.8228422e+00
   2.0801068e+01   1.8322953e+01  -5.8976477e+00
   2.0635633e+01   1.7689439e+01  -6.0140323e+00
   2.0791327e+01   1.7824759e+01  -6.1576538e+00
   2.0608854e+01   1.7853851e+01  -6.3280545e+00
   2.0453160e+01   1.7718531e+01  -6.1844329e+00
   2.0542351e+01   1.8084416e+01  -6.4028600e+00
   2.0658320e+01   1.8285890e+01  -6.3072650e+00
   2.0436123e+01   1.8381136e+01  -6.2384490e+00
   2.0320153e+01   1.8179662e+01  -6.3340441e+00
   2.1072731e+01   1.8659746e+01  -5.9456742e+00
   2.0917038e+01   1.8524426e+01  -5.8020527e+00
   2.1006228e+01   1.8890311e+01  -6.0204798e+00
   2.1122197e+01   1.9091785e+01  -5.9248847e+00
   2.0900000e+01   1.9187031e+01  -5.8560687e+00
   2.0784031e+01   1.8985557e+01  -5.9516638e+00
   2.1517126e+01   1.8469254e+01  -6.0833062e+00
   2.1218683e+01   1.8296872e+01  -6.3493019e+00
   2.1334653e+01   1.8498345e+01  -6.2537068e+00
   2.1112456e+01   1.8593591e+01  -6.1848908e+00
   2.0996486e+01   1.8392118e+01  -6.2804859e+00
   2.0430473e+01   1.7122081e+01  -5.8912003e+00
   2.0390749e+01   1.7188235e+01  -5.6519837e+00
   2.0248001e+01   1.7151172e+01  -6.0616009e+00
   2.0025804e+01   1.7246418e+01  -5.9927849e+00
   2.0702136e+01   1.7458874e+01  -5.9392267e+00
   1.9818376e+01   1.7149721e+01  -6.5287052e+00
   1.9778651e+01   1.7215876e+01  -6.2894886e+00
   2.0376915e+01   1.7450903e+01  -6.5192446e+00
   2.0403694e+01   1.7286492e+01  -6.2052224e+00
   2.0337191e+01   1.7517057e+01  -6.2800280e+00
   2.0194442e+01   1.7479994e+01  -6.6896452e+00
   1.9972245e+01   1.7575241e+01  -6.6208293e+00
   1.9856276e+01   1.7373767e+01  -6.7164243e+00
   1.9898446e+01   1.8966605e+01  -6.4896448e+00
   1.9964949e+01   1.8736039e+01  -6.4148392e+00
   1.9925225e+01   1.8802193e+01  -6.1756226e+00
   1.9858722e+01   1.9032759e+01  -6.2504282e+00
   1.9693286e+01   1.8399246e+01  -6.3668128e+00
   1.9848980e+01   1.8534565e+01  -6.5104343e+00
   1.9666507e+01   1.8563657e+01  -6.6808349e+00
   1.9510814e+01   1.8428337e+01  -6.5372134e+00
   1.9600004e+01   1.8794222e+01  -6.7556405e+00
   1.9715973e+01   1.8995696e+01  -6.6600454e+00
   1.9493776e+01   1.9090942e+01  -6.5912295e+00
   1.9377807e+01   1.8889468e+01  -6.6868245e+00
   2.0574779e+01   1.9179060e+01  -6.4360866e+00
   2.0641282e+01   1.8948495e+01  -6.3612810e+00
   2.0601558e+01   1.9014649e+01  -6.1220644e+00
   2.0535055e+01   1.9245215e+01  -6.1968700e+00
   2.0369619e+01   1.8611701e+01  -6.3132546e+00
   2.0525313e+01   1.8747021e+01  -6.4568761e+00
   2.0342840e+01   1.8776112e+01  -6.6272767e+00
   2.0187147e+01   1.8640793e+01  -6.4836552e+00
   2.0276337e+01   1.9006678e+01  -6.7020823e+00
   2.0392306e+01   1.9208152e+01  -6.6064872e+00
   2.0170109e+01   1.9303398e+01  -6.5376713e+00
   2.0054140e+01   1.9101924e+01  -6.6332663e+00
   2.0110902e+01   1.8373165e+01  -6.8184669e+00
   2.0177405e+01   1.8142599e+01  -6.7436613e+00
   2.0137681e+01   1.8208754e+01  -6.5044447e+00
   2.0071177e+01   1.8439319e+01  -6.5792503e+00
   1.9905742e+01   1.7805806e+01  -6.6956348e+00
   2.0061436e+01   1.7941125e+01  -6.8392564e+00
   1.9878963e+01   1.7970217e+01  -7.0096570e+00
   1.9723269e+01   1.7834898e+01  -6.8660355e+00
   1.9812459e+01   1.8200782e+01  -7.0844626e+00
   1.9928429e+01   1.8402256e+01  -6.9888675e+00
   1.9706232e+01   1.8497502e+01  -6.9200515e+00
   1.9590262e+01   1.8296029e+01  -7.0156466e+00
   2.0787234e+01   1.8585620e+01  -6.7649087e+00
   2.0853738e+01   1.8355055e+01  -6.6901031e+00
   2.0814014e+01   1.8421209e+01  -6.4508865e+00
   2.0747510e+01   1.8651775e+01  -6.5256921e+00
   2.0582075e+01   1.8018262e+01  -6.6420766e+00
   2.0737769e+01   1.8153581e+01  -6.7856982e+00
   2.0555296e+01   1.8182673e+01  -6.9560988e+00
   2.0399602e+01   1.8047353e+01  -6.8124773e+00
   2.0488792e+01   1.8413238e+01  -7.0309044e+00
   2.0604762e+01   1.8614712e+01  -6.9353093e+00
   2.0382565e+01   1.8709958e+01  -6.8664933e+00
   2.0266595e+01   1.8508484e+01  -6.9620884e+00
   1.9844888e+01   1.9295427e+01  -7.1176891e+00
   1.9911391e+01   1.9064861e+01  -7.0428836e+00
   1.9871667e+01   1.9131016e+01  -6.8036670e+00
   1.9805163e+01   1.9361581e+01  -6.8784725e+00
   1.9639728e+01   1.8728068e+01  -6.9948571e+00
   1.9795422e+01   1.8863387e+01  -7.1384786e+00
   2.0521221e+01   1.9507882e+01  -7.0641310e+00
   2.0587724e+01   1.9277317e+01  -6.9893254e+00
   2.0548000e+01   1.9343471e+01  -6.7501088e+00
   2.0481496e+01   1.9574037e+01  -6.8249143e+00
   2.0316061e+01   1.8940523e+01  -6.9412989e+00
   2.0471755e+01   1.9075843e+01  -7.0849204e+00
   2.0289282e+01   1.9104934e+01  -7.2553211e+00
   2.0133588e+01   1.8969615e+01  -7.1116995e+00
   2.0222779e+01   1.9335500e+01  -7.3301266e+00
   2.0338748e+01   1.9536974e+01  -7.2345316e+00
   2.0116551e+01   1.9632220e+01  -7.1657156e+00
   2.0000581e+01   1.9430746e+01  -7.2613107e+00
   2.0057343e+01   1.8701987e+01  -7.4465112e+00
   2.0123847e+01   1.8471421e+01  -7.3717056e+00
   2.0084122e+01   1.8537576e+01  -7.1324890e+00
   2.0017619e+01   1.8768141e+01  -7.2072946e+00
   1.9852184e+01   1.8134628e+01  -7.3236792e+00
   2.0733676e+01   1.8914442e+01  -7.3929530e+00
   2.0800180e+01   1.8683877e+01  -7.3181475e+00
   2.0760455e+01   1.8750031e+01  -7.0789309e+00
   2.0693952e+01   1.8980597e+01  -7.1537364e+00
   2.0528517e+01   1.8347084e+01  -7.2701210e+00
   2.0501738e+01   1.8511495e+01  -7.5841432e+00
   2.0346044e+01   1.8376175e+01  -7.4405216e+00
   2.0435234e+01   1.8742060e+01  -7.6589487e+00
   2.0551203e+01   1.8943534e+01  -7.5633537e+00
   2.0329006e+01   1.9038780e+01  -7.4945377e+00
   2.1251112e+01   1.9391516e+01  -6.3825284e+00
   2.1317615e+01   1.9160950e+01  -6.3077229e+00
   2.1277891e+01   1.9227105e+01  -6.0685063e+00
   2.1211388e+01   1.9457670e+01  -6.1433118e+00
   2.1045952e+01   1.8824157e+01  -6.2596964e+00
   2.1201646e+01   1.8959476e+01  -6.4033179e+00
   2.1019173e+01   1.8988568e+01  -6.5737186e+00
   2.0863479e+01   1.8853249e+01  -6.4300970e+00
   2.0952670e+01   1.9219133e+01  -6.6485241e+00
   2.1068639e+01   1.9420607e+01  -6.5529291e+00
   2.0846442e+01   1.9515853e+01  -6.4841131e+00
   2.0730473e+01   1.9314379e+01  -6.5797081e+00
   2.1927445e+01   1.9603971e+01  -6.3289702e+00
   2.1722285e+01   1.9036612e+01  -6.2061382e+00
   2.1877979e+01   1.9171932e+01  -6.3497597e+00
   2.1695506e+01   1.9201024e+01  -6.5201604e+00
   2.1539812e+01   1.9065704e+01  -6.3765388e+00
   2.1629003e+01   1.9431589e+01  -6.5949659e+00
   2.1744972e+01   1.9633063e+01  -6.4993709e+00
   2.1522775e+01   1.9728309e+01  -6.4305549e+00
   2.1406806e+01   1.9526835e+01  -6.5261500e+00
   2.1423843e+01   1.8864230e+01  -6.4721339e+00
   2.1058898e+01   1.8922414e+01  -6.8129352e+00
   2.0942928e+01   1.8720940e+01  -6.9085302e+00
   2.1197554e+01   1.9720338e+01  -7.0105728e+00
   2.1264057e+01   1.9489772e+01  -6.9357672e+00
   2.1224333e+01   1.9555927e+01  -6.6965506e+00
   2.1157829e+01   1.9786492e+01  -6.7713562e+00
   2.0992394e+01   1.9152979e+01  -6.8877407e+00
   2.1148088e+01   1.9288298e+01  -7.0313623e+00
   2.0965615e+01   1.9317390e+01  -7.2017629e+00
   2.0809921e+01   1.9182071e+01  -7.0581414e+00
   2.0899112e+01   1.9547955e+01  -7.2765685e+00
   2.1015081e+01   1.9749429e+01  -7.1809734e+00
   2.0792884e+01   1.9844675e+01  -7.1121574e+00
   2.0676914e+01   1.9643202e+01  -7.2077525e+00
   2.1939486e+01   1.9966583e+01  -7.0214926e+00
   2.1940390e+01   1.9702228e+01  -6.8822090e+00
   2.1900666e+01   1.9768382e+01  -6.6429924e+00
   2.1837867e+01   1.9976206e+01  -6.6743611e+00
   2.1668727e+01   1.9365435e+01  -6.8341825e+00
   2.1641948e+01   1.9529846e+01  -7.1482047e+00
   2.1486254e+01   1.9394526e+01  -7.0045832e+00
   2.1575445e+01   1.9760411e+01  -7.2230103e+00
   2.1757013e+01   1.9995675e+01  -7.1918932e+00
   2.1579276e+01   2.0061681e+01  -7.0415811e+00
   2.1353247e+01   1.9855657e+01  -7.1541943e+00
   2.1370285e+01   1.9193052e+01  -7.1001782e+00
   2.1005339e+01   1.9251236e+01  -7.4409795e+00
   2.0889370e+01   1.9049762e+01  -7.5365746e+00
   2.0283633e+01   1.7845879e+01  -6.9080723e+00
   1.9918687e+01   1.7904063e+01  -7.2488736e+00
   2.0230075e+01   1.8174701e+01  -7.5361167e+00
   2.0534166e+01   1.9606139e+01  -7.6173697e+00
   2.0494442e+01   1.9672293e+01  -7.3781531e+00
   2.0427938e+01   1.9902859e+01  -7.4529587e+00
   2.0706897e+01   1.9078853e+01  -7.7069752e+00
   2.0640394e+01   1.9309419e+01  -7.7817808e+00
   2.1142630e+01   2.0022455e+01  -7.6412357e+00
   2.1221981e+01   1.9827418e+01  -7.5741215e+00
   2.1170775e+01   1.9884749e+01  -7.3245949e+00
   2.1107975e+01   2.0092572e+01  -7.3559636e+00
   2.0938836e+01   1.9481801e+01  -7.5157851e+00
   2.1106011e+01   1.9625945e+01  -7.6697166e+00
   2.0923539e+01   1.9655036e+01  -7.8401172e+00
   2.0756363e+01   1.9510893e+01  -7.6861857e+00
   2.0963512e+01   2.0030954e+01  -7.7723059e+00
   2.0852139e+01   2.0155796e+01  -7.6834946e+00
   2.1834622e+01   1.9915054e+01  -7.2887648e+00
   2.1444178e+01   1.9732172e+01  -7.6429375e+00
   2.2083139e+01   1.9739291e+01  -6.4725918e+00
   2.1307813e+01   2.0786072e+01  -5.8343939e+00
   2.1085616e+01   2.0881318e+01  -5.7655779e+00
   2.1409195e+01   2.0628170e+01  -6.2065857e+00
   2.1185602e+01   2.0629795e+01  -6.4717403e+00
   2.1678532e+01   2.0333298e+01  -6.5354656e+00
   2.1711784e+01   2.0218016e+01  -6.4980628e+00
   2.1623179e+01   2.0365883e+01  -6.2438389e+00
   2.1502026e+01   2.0501642e+01  -6.4202872e+00
   2.1655063e+01   2.0115726e+01  -6.8255549e+00
   2.1562907e+01   2.0156116e+01  -6.7199742e+00
   2.1615669e+01   2.0071452e+01  -6.6055451e+00
   2.1447747e+01   2.0104530e+01  -6.8934183e+00
   2.1390120e+01   2.0125744e+01  -6.7768006e+00
   2.1604582e+01   2.0123774e+01  -6.8726960e+00
   2.1297066e+01   2.0342503e+01  -6.9182244e+00
   2.1330311e+01   2.0315207e+01  -6.7731006e+00
   2.1232021e+01   2.0522537e+01  -6.6324513e+00
   2.1147487e+01   2.0407994e+01  -6.7468667e+00
   2.1153615e+01   2.0432831e+01  -6.9345726e+00
   2.0119715e+01   2.1066161e+01  -7.1093283e+00
   2.0041869e+01   2.0998501e+01  -7.0375176e+00
   2.0645844e+01   2.0748599e+01  -7.0366983e+00
   2.0690669e+01   2.0753324e+01  -6.8985075e+00
   2.0396059e+01   2.0858368e+01  -7.2040554e+00
   2.0467076e+01   2.0754949e+01  -7.1636620e+00
   2.0929130e+01   2.0419047e+01  -7.2940944e+00
   2.0981892e+01   2.0334382e+01  -7.1796653e+00
   2.0893288e+01   2.0482250e+01  -6.9254414e+00
   2.0944585e+01   2.0536102e+01  -7.0638704e+00
   2.0791646e+01   2.0648627e+01  -7.0248635e+00
   2.0815212e+01   2.0592808e+01  -7.1010350e+00
   2.0924573e+01   2.0230433e+01  -7.5067988e+00
   2.0833016e+01   2.0272483e+01  -7.4015767e+00
   2.0885778e+01   2.0187818e+01  -7.2871477e+00
   2.0717856e+01   2.0220897e+01  -7.5750208e+00
   2.0660228e+01   2.0242111e+01  -7.4584031e+00
   2.0874092e+01   2.0238481e+01  -7.5539399e+00
   2.0658047e+01   2.0410359e+01  -7.5713209e+00
   2.0600420e+01   2.0431574e+01  -7.4547031e+00
   2.0332838e+01   2.0773681e+01  -7.4292391e+00
   2.0431114e+01   2.0742324e+01  -7.3544472e+00
   2.0502130e+01   2.0638904e+01  -7.3140538e+00
   2.0417595e+01   2.0524361e+01  -7.4284692e+00
   2.1883506e+01   2.0316464e+01  -6.2529700e+00
   2.1861639e+01   1.9898923e+01  -6.9496818e+00
   2.1812229e+01   2.0024541e+01  -6.8240394e+00
   2.1679166e+01   1.9928015e+01  -7.1200824e+00
   2.1422440e+01   2.0042437e+01  -7.0623034e+00
   2.1081739e+01   2.0139248e+01  -7.5052833e+00
   2.0860389e+01   1.9865010e+01  -7.8755924e+00
   2.0771423e+01   2.0133494e+01  -7.7862509e+00
   2.0663665e+01   2.0160607e+01  -7.7126678e+00
