   6.8072266e+01   4.5500000e+01   6.5050781e+01
   6.7894531e+01   4.5500000e+01   6.5228516e+01
   6.7716797e+01   4.5500000e+01   6.5050781e+01
   6.7894531e+01   4.5322266e+01   6.5406250e+01
   6.8250000e+01   4.5144531e+01   6.5939453e+01
   6.8250000e+01   4.5322266e+01   6.5761719e+01
   6.8250000e+01   4.5144531e+01   6.5583984e+01
   6.7894531e+01   4.5500000e+01   6.5583984e+01
   6.8072266e+01   4.5500000e+01   6.5761719e+01
   6.9316406e+01   4.5500000e+01   6.4517578e+01
   6.9316406e+01   4.5322266e+01   6.4695312e+01
   6.8960938e+01   4.5144531e+01   6.5228516e+01
   6.8960938e+01   4.5322266e+01   6.5050781e+01
   6.8605469e+01   4.5500000e+01   6.4873047e+01
   6.8783203e+01   4.5500000e+01   6.5050781e+01
   6.8605469e+01   4.5500000e+01   6.5228516e+01
   6.8427734e+01   4.5500000e+01   6.5050781e+01
   6.8605469e+01   4.5322266e+01   6.5406250e+01
   6.8783203e+01   4.5144531e+01   6.5406250e+01
   6.9671875e+01   4.5144531e+01   6.5228516e+01
   6.9671875e+01   4.5322266e+01   6.5050781e+01
   6.9316406e+01   4.5500000e+01   6.4873047e+01
   6.9494141e+01   4.5500000e+01   6.5050781e+01
   6.9316406e+01   4.5500000e+01   6.5228516e+01
   6.9138672e+01   4.5500000e+01   6.5050781e+01
   6.9316406e+01   4.5322266e+01   6.5406250e+01
   6.9494141e+01   4.5144531e+01   6.5406250e+01
   6.9138672e+01   4.5144531e+01   6.5406250e+01
   7.0027344e+01   4.5500000e+01   6.5228516e+01
   6.9849609e+01   4.5500000e+01   6.5050781e+01
   7.0027344e+01   4.5322266e+01   6.5406250e+01
   7.0205078e+01   4.5144531e+01   6.5406250e+01
   7.0027344e+01   4.4966797e+01   6.5406250e+01
   6.9849609e+01   4.5144531e+01   6.5406250e+01
   6.9494141e+01   4.4789062e+01   6.5761719e+01
   6.9316406e+01   4.4789062e+01   6.5939453e+01
   6.8960938e+01   4.5144531e+01   6.5939453e+01
   6.8960938e+01   4.5322266e+01   6.5761719e+01
   6.8960938e+01   4.5144531e+01   6.5583984e+01
   6.8960938e+01   4.4966797e+01   6.5761719e+01
   6.8605469e+01   4.5500000e+01   6.5583984e+01
   6.8783203e+01   4.5500000e+01   6.5761719e+01
   6.8605469e+01   4.5500000e+01   6.5939453e+01
   6.8427734e+01   4.5500000e+01   6.5761719e+01
   6.8605469e+01   4.5322266e+01   6.6117188e+01
   6.8783203e+01   4.5144531e+01   6.6117188e+01
   6.8605469e+01   4.4966797e+01   6.6117188e+01
   6.8427734e+01   4.5144531e+01   6.6117188e+01
   6.9671875e+01   4.5144531e+01   6.5939453e+01
   6.9671875e+01   4.5322266e+01   6.5761719e+01
   6.9671875e+01   4.5144531e+01   6.5583984e+01
   6.9671875e+01   4.4966797e+01   6.5761719e+01
   6.9316406e+01   4.5500000e+01   6.5583984e+01
   6.9494141e+01   4.5500000e+01   6.5761719e+01
   6.9316406e+01   4.5500000e+01   6.5939453e+01
   6.9138672e+01   4.5500000e+01   6.5761719e+01
   6.9316406e+01   4.5322266e+01   6.6117188e+01
   6.9494141e+01   4.5144531e+01   6.6117188e+01
   6.9316406e+01   4.4966797e+01   6.6117188e+01
   6.9138672e+01   4.5144531e+01   6.6117188e+01
   6.8960938e+01   4.4611328e+01   6.6472656e+01
   6.9671875e+01   4.4433594e+01   6.6650391e+01
   6.9671875e+01   4.4611328e+01   6.6472656e+01
   6.9316406e+01   4.4789062e+01   6.6294922e+01
   6.9494141e+01   4.4789062e+01   6.6472656e+01
   6.9316406e+01   4.4789062e+01   6.6650391e+01
   6.9138672e+01   4.4789062e+01   6.6472656e+01
   6.9316406e+01   4.4611328e+01   6.6828125e+01
   6.9494141e+01   4.4433594e+01   6.6828125e+01
   6.8960938e+01   4.5144531e+01   6.6650391e+01
   6.8960938e+01   4.5322266e+01   6.6472656e+01
   6.8960938e+01   4.5144531e+01   6.6294922e+01
   6.8960938e+01   4.4966797e+01   6.6472656e+01
   6.8605469e+01   4.5500000e+01   6.6294922e+01
   6.8783203e+01   4.5500000e+01   6.6472656e+01
   6.9671875e+01   4.5144531e+01   6.6650391e+01
   6.9671875e+01   4.5322266e+01   6.6472656e+01
   6.9671875e+01   4.5144531e+01   6.6294922e+01
   6.9671875e+01   4.4966797e+01   6.6472656e+01
   6.9316406e+01   4.5500000e+01   6.6294922e+01
   6.9494141e+01   4.5500000e+01   6.6472656e+01
   6.9316406e+01   4.5500000e+01   6.6650391e+01
   6.9138672e+01   4.5500000e+01   6.6472656e+01
   6.9316406e+01   4.5322266e+01   6.6828125e+01
   6.9494141e+01   4.5144531e+01   6.6828125e+01
   6.9316406e+01   4.4966797e+01   6.6828125e+01
   6.9138672e+01   4.5144531e+01   6.6828125e+01
   7.0382812e+01   4.4611328e+01   6.5761719e+01
   7.0027344e+01   4.4789062e+01   6.5583984e+01
   7.0205078e+01   4.4789062e+01   6.5761719e+01
   7.0027344e+01   4.4789062e+01   6.5939453e+01
   6.9849609e+01   4.4789062e+01   6.5761719e+01
   7.0027344e+01   4.4611328e+01   6.6117188e+01
   7.0738281e+01   4.4789062e+01   6.5583984e+01
   7.0916016e+01   4.4789062e+01   6.5761719e+01
   7.0738281e+01   4.4789062e+01   6.5939453e+01
   7.0560547e+01   4.4789062e+01   6.5761719e+01
   7.0738281e+01   4.4611328e+01   6.6117188e+01
   7.0560547e+01   4.4433594e+01   6.6117188e+01
   7.0382812e+01   4.5144531e+01   6.5939453e+01
   7.0382812e+01   4.5322266e+01   6.5761719e+01
   7.0382812e+01   4.5144531e+01   6.5583984e+01
   7.0382812e+01   4.4966797e+01   6.5761719e+01
   7.0027344e+01   4.5500000e+01   6.5583984e+01
   7.0205078e+01   4.5500000e+01   6.5761719e+01
   7.0027344e+01   4.5500000e+01   6.5939453e+01
   6.9849609e+01   4.5500000e+01   6.5761719e+01
   7.0027344e+01   4.5322266e+01   6.6117188e+01
   7.0205078e+01   4.5144531e+01   6.6117188e+01
   7.0027344e+01   4.4966797e+01   6.6117188e+01
   6.9849609e+01   4.5144531e+01   6.6117188e+01
   7.0738281e+01   4.5500000e+01   6.5939453e+01
   7.0560547e+01   4.5500000e+01   6.5761719e+01
   7.0738281e+01   4.5322266e+01   6.6117188e+01
   7.0916016e+01   4.5144531e+01   6.6117188e+01
   7.0738281e+01   4.4966797e+01   6.6117188e+01
   7.0560547e+01   4.5144531e+01   6.6117188e+01
   7.0370686e+01   4.4437236e+01   6.6637238e+01
   7.0382812e+01   4.4611328e+01   6.6472656e+01
   7.0382812e+01   4.4433594e+01   6.6294922e+01
   7.0027344e+01   4.4789062e+01   6.6294922e+01
   7.0205078e+01   4.4789062e+01   6.6472656e+01
   7.0027344e+01   4.4789062e+01   6.6650391e+01
   6.9849609e+01   4.4789062e+01   6.6472656e+01
   7.0040004e+01   4.4612162e+01   6.6840449e+01
   7.0205611e+01   4.4438070e+01   6.6827297e+01
   7.0027877e+01   4.4260336e+01   6.6827297e+01
   6.9862270e+01   4.4434428e+01   6.6840449e+01
   7.0738281e+01   4.4789062e+01   6.6294922e+01
   7.0560547e+01   4.4789062e+01   6.6472656e+01
   7.0382812e+01   4.5144531e+01   6.6650391e+01
   7.0382812e+01   4.5322266e+01   6.6472656e+01
   7.0382812e+01   4.5144531e+01   6.6294922e+01
   7.0382812e+01   4.4966797e+01   6.6472656e+01
   7.0027344e+01   4.5500000e+01   6.6294922e+01
   7.0205078e+01   4.5500000e+01   6.6472656e+01
   7.0027344e+01   4.5500000e+01   6.6650391e+01
   6.9849609e+01   4.5500000e+01   6.6472656e+01
   7.0027344e+01   4.5322266e+01   6.6828125e+01
   7.0205078e+01   4.5144531e+01   6.6828125e+01
   7.0027344e+01   4.4966797e+01   6.6828125e+01
   6.9849609e+01   4.5144531e+01   6.6828125e+01
   7.0916904e+01   4.5165482e+01   6.6562412e+01
   7.0971369e+01   4.5288752e+01   6.6567707e+01
   7.1092861e+01   4.5212448e+01   6.6294033e+01
   7.1038396e+01   4.4911443e+01   6.6288738e+01
   7.0738281e+01   4.5500000e+01   6.6294922e+01
   7.0560547e+01   4.5500000e+01   6.6472656e+01
   7.0710062e+01   4.5412022e+01   6.6849076e+01
   7.0828037e+01   4.5165482e+01   6.6651279e+01
   7.0505193e+01   4.5089178e+01   6.6861639e+01
   6.9684535e+01   4.4612162e+01   6.7195918e+01
   6.9684535e+01   4.4434428e+01   6.7018184e+01
   6.9671875e+01   4.5144531e+01   6.7361328e+01
   6.9671875e+01   4.5322266e+01   6.7183594e+01
   6.9671875e+01   4.5144531e+01   6.7005859e+01
   6.9671875e+01   4.4966797e+01   6.7183594e+01
   6.9316406e+01   4.5500000e+01   6.7005859e+01
   6.9494141e+01   4.5500000e+01   6.7183594e+01
   7.0040004e+01   4.4789896e+01   6.7018184e+01
   6.9862270e+01   4.4789896e+01   6.7195918e+01
   7.0205967e+01   4.5165482e+01   6.7273350e+01
   7.0314896e+01   4.5234288e+01   6.7204545e+01
   7.0381924e+01   4.5212448e+01   6.7004971e+01
   7.0327459e+01   4.4911443e+01   6.6999676e+01
   7.0027344e+01   4.5500000e+01   6.7005859e+01
   6.9849609e+01   4.5500000e+01   6.7183594e+01
   6.9943771e+01   4.5356669e+01   6.7593527e+01
   7.0117100e+01   4.5165482e+01   6.7362217e+01
   7.0654709e+01   4.5534403e+01   6.6971457e+01
   7.0526145e+01   4.5534403e+01   6.7100021e+01
   6.9919186e+01   4.5509818e+01   6.7657809e+01
   7.1216131e+01   4.5089178e+01   6.6150701e+01
   7.1237082e+01   4.5534403e+01   6.6389084e+01
   6.8250000e+01   4.5855469e+01   6.4517578e+01
   6.8250000e+01   4.6033203e+01   6.4339844e+01
   6.8250000e+01   4.5855469e+01   6.4162109e+01
   6.7894531e+01   4.6033203e+01   6.4695312e+01
   6.8072266e+01   4.5855469e+01   6.4695312e+01
   6.7894531e+01   4.5677734e+01   6.4695312e+01
   6.7716797e+01   4.5855469e+01   6.4695312e+01
   6.8250000e+01   4.6566406e+01   6.4517578e+01
   6.7539062e+01   4.5855469e+01   6.5228516e+01
   6.7539062e+01   4.6033203e+01   6.5050781e+01
   6.7539062e+01   4.5855469e+01   6.4873047e+01
   6.7539062e+01   4.5677734e+01   6.5050781e+01
   6.8250000e+01   4.5855469e+01   6.5228516e+01
   6.8250000e+01   4.6033203e+01   6.5050781e+01
   6.8250000e+01   4.5855469e+01   6.4873047e+01
   6.8250000e+01   4.5677734e+01   6.5050781e+01
   6.7894531e+01   4.6210938e+01   6.4873047e+01
   6.8072266e+01   4.6210938e+01   6.5050781e+01
   6.7894531e+01   4.6210938e+01   6.5228516e+01
   6.7716797e+01   4.6210938e+01   6.5050781e+01
   6.7894531e+01   4.6033203e+01   6.5406250e+01
   6.8072266e+01   4.5855469e+01   6.5406250e+01
   6.7894531e+01   4.5677734e+01   6.5406250e+01
   6.7716797e+01   4.5855469e+01   6.5406250e+01
   6.8250000e+01   4.6566406e+01   6.5228516e+01
   6.8250000e+01   4.6744141e+01   6.5050781e+01
   6.8250000e+01   4.6566406e+01   6.4873047e+01
   6.8250000e+01   4.6388672e+01   6.5050781e+01
   6.7894531e+01   4.6744141e+01   6.5406250e+01
   6.8072266e+01   4.6566406e+01   6.5406250e+01
   6.7894531e+01   4.6388672e+01   6.5406250e+01
   6.7716797e+01   4.6566406e+01   6.5406250e+01
   6.8250000e+01   4.5855469e+01   6.5939453e+01
   6.8250000e+01   4.6033203e+01   6.5761719e+01
   6.8250000e+01   4.5855469e+01   6.5583984e+01
   6.8250000e+01   4.5677734e+01   6.5761719e+01
   6.7894531e+01   4.6210938e+01   6.5583984e+01
   6.8072266e+01   4.6210938e+01   6.5761719e+01
   6.7539062e+01   4.6566406e+01   6.5583984e+01
   6.8250000e+01   4.6566406e+01   6.5939453e+01
   6.8250000e+01   4.6744141e+01   6.5761719e+01
   6.8250000e+01   4.6566406e+01   6.5583984e+01
   6.8250000e+01   4.6388672e+01   6.5761719e+01
   6.7894531e+01   4.6921875e+01   6.5583984e+01
   6.8072266e+01   4.6921875e+01   6.5761719e+01
   6.7894531e+01   4.6921875e+01   6.5939453e+01
   6.7716797e+01   4.6921875e+01   6.5761719e+01
   6.8072266e+01   4.6566406e+01   6.6117188e+01
   6.8250000e+01   4.6566406e+01   6.6294922e+01
   6.8250000e+01   4.7277344e+01   6.5583984e+01
   6.8250000e+01   4.7099609e+01   6.5761719e+01
   6.7983398e+01   4.7366211e+01   6.5495117e+01
   6.7805664e+01   4.7188477e+01   6.5495117e+01
   6.8605469e+01   4.6033203e+01   6.3984375e+01
   6.8783203e+01   4.5855469e+01   6.3984375e+01
   6.8427734e+01   4.5855469e+01   6.3984375e+01
   6.8783203e+01   4.6566406e+01   6.3984375e+01
   6.8605469e+01   4.6388672e+01   6.3984375e+01
   6.8960938e+01   4.5855469e+01   6.4517578e+01
   6.8960938e+01   4.6033203e+01   6.4339844e+01
   6.8960938e+01   4.5855469e+01   6.4162109e+01
   6.8960938e+01   4.5677734e+01   6.4339844e+01
   6.8605469e+01   4.6210938e+01   6.4162109e+01
   6.8783203e+01   4.6210938e+01   6.4339844e+01
   6.8605469e+01   4.6210938e+01   6.4517578e+01
   6.8427734e+01   4.6210938e+01   6.4339844e+01
   6.8605469e+01   4.6033203e+01   6.4695312e+01
   6.8783203e+01   4.5855469e+01   6.4695312e+01
   6.8605469e+01   4.5677734e+01   6.4695312e+01
   6.8427734e+01   4.5855469e+01   6.4695312e+01
   6.9316406e+01   4.6210938e+01   6.4517578e+01
   6.9138672e+01   4.6210938e+01   6.4339844e+01
   6.9316406e+01   4.6033203e+01   6.4695312e+01
   6.9494141e+01   4.5855469e+01   6.4695312e+01
   6.9316406e+01   4.5677734e+01   6.4695312e+01
   6.9138672e+01   4.5855469e+01   6.4695312e+01
   6.8960938e+01   4.6566406e+01   6.4517578e+01
   6.8960938e+01   4.6744141e+01   6.4339844e+01
   6.8960938e+01   4.6566406e+01   6.4162109e+01
   6.8960938e+01   4.6388672e+01   6.4339844e+01
   6.8783203e+01   4.6921875e+01   6.4339844e+01
   6.8605469e+01   4.6921875e+01   6.4517578e+01
   6.8605469e+01   4.6744141e+01   6.4695312e+01
   6.8783203e+01   4.6566406e+01   6.4695312e+01
   6.8605469e+01   4.6388672e+01   6.4695312e+01
   6.8427734e+01   4.6566406e+01   6.4695312e+01
   6.9316406e+01   4.6744141e+01   6.4695312e+01
   6.9316406e+01   4.6388672e+01   6.4695312e+01
   6.9138672e+01   4.6566406e+01   6.4695312e+01
   6.8960938e+01   4.5855469e+01   6.5228516e+01
   6.8960938e+01   4.6033203e+01   6.5050781e+01
   6.8960938e+01   4.5855469e+01   6.4873047e+01
   6.8960938e+01   4.5677734e+01   6.5050781e+01
   6.8605469e+01   4.6210938e+01   6.4873047e+01
   6.8783203e+01   4.6210938e+01   6.5050781e+01
   6.8605469e+01   4.6210938e+01   6.5228516e+01
   6.8427734e+01   4.6210938e+01   6.5050781e+01
   6.8605469e+01   4.6033203e+01   6.5406250e+01
   6.8783203e+01   4.5855469e+01   6.5406250e+01
   6.8605469e+01   4.5677734e+01   6.5406250e+01
   6.8427734e+01   4.5855469e+01   6.5406250e+01
   6.9671875e+01   4.5855469e+01   6.5228516e+01
   6.9671875e+01   4.6033203e+01   6.5050781e+01
   6.9671875e+01   4.5855469e+01   6.4873047e+01
   6.9671875e+01   4.5677734e+01   6.5050781e+01
   6.9316406e+01   4.6210938e+01   6.4873047e+01
   6.9494141e+01   4.6210938e+01   6.5050781e+01
   6.9316406e+01   4.6210938e+01   6.5228516e+01
   6.9138672e+01   4.6210938e+01   6.5050781e+01
   6.9316406e+01   4.6033203e+01   6.5406250e+01
   6.9494141e+01   4.5855469e+01   6.5406250e+01
   6.9316406e+01   4.5677734e+01   6.5406250e+01
   6.9138672e+01   4.5855469e+01   6.5406250e+01
   6.8960938e+01   4.6566406e+01   6.5228516e+01
   6.8960938e+01   4.6744141e+01   6.5050781e+01
   6.8960938e+01   4.6566406e+01   6.4873047e+01
   6.8960938e+01   4.6388672e+01   6.5050781e+01
   6.8605469e+01   4.6921875e+01   6.4873047e+01
   6.8783203e+01   4.6921875e+01   6.5050781e+01
   6.8605469e+01   4.6921875e+01   6.5228516e+01
   6.8427734e+01   4.6921875e+01   6.5050781e+01
   6.8605469e+01   4.6744141e+01   6.5406250e+01
   6.8783203e+01   4.6566406e+01   6.5406250e+01
   6.8605469e+01   4.6388672e+01   6.5406250e+01
   6.8427734e+01   4.6566406e+01   6.5406250e+01
   6.9671875e+01   4.6566406e+01   6.5228516e+01
   6.9671875e+01   4.6744141e+01   6.5050781e+01
   6.9671875e+01   4.6388672e+01   6.5050781e+01
   6.9316406e+01   4.6921875e+01   6.4873047e+01
   6.9494141e+01   4.6921875e+01   6.5050781e+01
   6.9316406e+01   4.6921875e+01   6.5228516e+01
   6.9138672e+01   4.6921875e+01   6.5050781e+01
   6.9316406e+01   4.6744141e+01   6.5406250e+01
   6.9494141e+01   4.6566406e+01   6.5406250e+01
   6.9316406e+01   4.6388672e+01   6.5406250e+01
   6.9138672e+01   4.6566406e+01   6.5406250e+01
   7.0027344e+01   4.6210938e+01   6.5228516e+01
   6.9849609e+01   4.6210938e+01   6.5050781e+01
   7.0027344e+01   4.6033203e+01   6.5406250e+01
   7.0205078e+01   4.5855469e+01   6.5406250e+01
   7.0027344e+01   4.5677734e+01   6.5406250e+01
   6.9849609e+01   4.5855469e+01   6.5406250e+01
   7.0027344e+01   4.6744141e+01   6.5406250e+01
   7.0027344e+01   4.6388672e+01   6.5406250e+01
   6.9849609e+01   4.6566406e+01   6.5406250e+01
   6.8960938e+01   4.7277344e+01   6.4517578e+01
   6.8960938e+01   4.7099609e+01   6.4339844e+01
   6.8783203e+01   4.7277344e+01   6.4695312e+01
   6.8605469e+01   4.7099609e+01   6.4695312e+01
   6.9316406e+01   4.7099609e+01   6.4695312e+01
   6.9138672e+01   4.7277344e+01   6.4695312e+01
   6.8338867e+01   4.7366211e+01   6.5139648e+01
   6.8338867e+01   4.7188477e+01   6.4961914e+01
   6.8960938e+01   4.7277344e+01   6.5228516e+01
   6.8960938e+01   4.7455078e+01   6.5050781e+01
   6.8960938e+01   4.7277344e+01   6.4873047e+01
   6.8960938e+01   4.7099609e+01   6.5050781e+01
   6.8783203e+01   4.7277344e+01   6.5406250e+01
   6.8605469e+01   4.7099609e+01   6.5406250e+01
   6.8427734e+01   4.7277344e+01   6.5406250e+01
   6.9671875e+01   4.7099609e+01   6.5050781e+01
   6.9316406e+01   4.7099609e+01   6.5406250e+01
   6.8960938e+01   4.5855469e+01   6.5939453e+01
   6.8960938e+01   4.6033203e+01   6.5761719e+01
   6.8960938e+01   4.5855469e+01   6.5583984e+01
   6.8960938e+01   4.5677734e+01   6.5761719e+01
   6.8605469e+01   4.6210938e+01   6.5583984e+01
   6.8783203e+01   4.6210938e+01   6.5761719e+01
   6.8605469e+01   4.6210938e+01   6.5939453e+01
   6.8427734e+01   4.6210938e+01   6.5761719e+01
   6.8605469e+01   4.6033203e+01   6.6117188e+01
   6.8783203e+01   4.5855469e+01   6.6117188e+01
   6.8605469e+01   4.5677734e+01   6.6117188e+01
   6.8427734e+01   4.5855469e+01   6.6117188e+01
   6.9671875e+01   4.5855469e+01   6.5939453e+01
   6.9671875e+01   4.6033203e+01   6.5761719e+01
   6.9671875e+01   4.5855469e+01   6.5583984e+01
   6.9671875e+01   4.5677734e+01   6.5761719e+01
   6.9316406e+01   4.6210938e+01   6.5583984e+01
   6.9494141e+01   4.6210938e+01   6.5761719e+01
   6.9316406e+01   4.6210938e+01   6.5939453e+01
   6.9138672e+01   4.6210938e+01   6.5761719e+01
   6.9316406e+01   4.6033203e+01   6.6117188e+01
   6.9494141e+01   4.5855469e+01   6.6117188e+01
   6.9316406e+01   4.5677734e+01   6.6117188e+01
   6.9138672e+01   4.5855469e+01   6.6117188e+01
   6.8960938e+01   4.6566406e+01   6.5939453e+01
   6.8960938e+01   4.6744141e+01   6.5761719e+01
   6.8960938e+01   4.6566406e+01   6.5583984e+01
   6.8960938e+01   4.6388672e+01   6.5761719e+01
   6.8605469e+01   4.6921875e+01   6.5583984e+01
   6.8783203e+01   4.6921875e+01   6.5761719e+01
   6.8605469e+01   4.6921875e+01   6.5939453e+01
   6.8427734e+01   4.6921875e+01   6.5761719e+01
   6.8605469e+01   4.6744141e+01   6.6117188e+01
   6.8783203e+01   4.6566406e+01   6.6117188e+01
   6.8605469e+01   4.6388672e+01   6.6117188e+01
   6.8427734e+01   4.6566406e+01   6.6117188e+01
   6.9671875e+01   4.6566406e+01   6.5939453e+01
   6.9671875e+01   4.6744141e+01   6.5761719e+01
   6.9671875e+01   4.6566406e+01   6.5583984e+01
   6.9671875e+01   4.6388672e+01   6.5761719e+01
   6.9316406e+01   4.6921875e+01   6.5583984e+01
   6.9494141e+01   4.6921875e+01   6.5761719e+01
   6.9316406e+01   4.6921875e+01   6.5939453e+01
   6.9138672e+01   4.6921875e+01   6.5761719e+01
   6.9316406e+01   4.6744141e+01   6.6117188e+01
   6.9494141e+01   4.6566406e+01   6.6117188e+01
   6.9316406e+01   4.6388672e+01   6.6117188e+01
   6.9138672e+01   4.6566406e+01   6.6117188e+01
   6.8960938e+01   4.5855469e+01   6.6650391e+01
   6.8960938e+01   4.6033203e+01   6.6472656e+01
   6.8960938e+01   4.5855469e+01   6.6294922e+01
   6.8960938e+01   4.5677734e+01   6.6472656e+01
   6.8605469e+01   4.6210938e+01   6.6294922e+01
   6.8783203e+01   4.6210938e+01   6.6472656e+01
   6.9671875e+01   4.5855469e+01   6.6650391e+01
   6.9671875e+01   4.6033203e+01   6.6472656e+01
   6.9671875e+01   4.5855469e+01   6.6294922e+01
   6.9671875e+01   4.5677734e+01   6.6472656e+01
   6.9316406e+01   4.6210938e+01   6.6294922e+01
   6.9494141e+01   4.6210938e+01   6.6472656e+01
   6.9316406e+01   4.6210938e+01   6.6650391e+01
   6.9138672e+01   4.6210938e+01   6.6472656e+01
   6.9316406e+01   4.6033203e+01   6.6828125e+01
   6.9494141e+01   4.5855469e+01   6.6828125e+01
   6.9316406e+01   4.5677734e+01   6.6828125e+01
   6.9138672e+01   4.5855469e+01   6.6828125e+01
   6.8960938e+01   4.6566406e+01   6.6650391e+01
   6.8960938e+01   4.6744141e+01   6.6472656e+01
   6.8960938e+01   4.6566406e+01   6.6294922e+01
   6.8960938e+01   4.6388672e+01   6.6472656e+01
   6.8605469e+01   4.6921875e+01   6.6294922e+01
   6.8783203e+01   4.6566406e+01   6.6828125e+01
   6.9671875e+01   4.6566406e+01   6.6650391e+01
   6.9671875e+01   4.6566406e+01   6.6294922e+01
   6.9671875e+01   4.6388672e+01   6.6472656e+01
   6.9316406e+01   4.6388672e+01   6.6828125e+01
   6.9138672e+01   4.6566406e+01   6.6828125e+01
   7.0382812e+01   4.5855469e+01   6.5939453e+01
   7.0382812e+01   4.6033203e+01   6.5761719e+01
   7.0382812e+01   4.5855469e+01   6.5583984e+01
   7.0382812e+01   4.5677734e+01   6.5761719e+01
   7.0027344e+01   4.6210938e+01   6.5583984e+01
   7.0205078e+01   4.6210938e+01   6.5761719e+01
   7.0027344e+01   4.6210938e+01   6.5939453e+01
   6.9849609e+01   4.6210938e+01   6.5761719e+01
   7.0027344e+01   4.6033203e+01   6.6117188e+01
   7.0205078e+01   4.5855469e+01   6.6117188e+01
   7.0027344e+01   4.5677734e+01   6.6117188e+01
   6.9849609e+01   4.5855469e+01   6.6117188e+01
   7.0738281e+01   4.6210938e+01   6.5939453e+01
   7.0560547e+01   4.6210938e+01   6.5761719e+01
   7.0738281e+01   4.6033203e+01   6.6117188e+01
   7.0916016e+01   4.5855469e+01   6.6117188e+01
   7.0738281e+01   4.5677734e+01   6.6117188e+01
   7.0560547e+01   4.5855469e+01   6.6117188e+01
   7.0382812e+01   4.6566406e+01   6.5939453e+01
   7.0382812e+01   4.6744141e+01   6.5761719e+01
   7.0382812e+01   4.6388672e+01   6.5761719e+01
   7.0027344e+01   4.6921875e+01   6.5583984e+01
   6.9849609e+01   4.6921875e+01   6.5761719e+01
   7.0027344e+01   4.6744141e+01   6.6117188e+01
   7.0205078e+01   4.6566406e+01   6.6117188e+01
   7.0027344e+01   4.6388672e+01   6.6117188e+01
   6.9849609e+01   4.6566406e+01   6.6117188e+01
   7.0738281e+01   4.6388672e+01   6.6117188e+01
   7.0560547e+01   4.6566406e+01   6.6117188e+01
   7.0382812e+01   4.5855469e+01   6.6650391e+01
   7.0382812e+01   4.6033203e+01   6.6472656e+01
   7.0382812e+01   4.5855469e+01   6.6294922e+01
   7.0382812e+01   4.5677734e+01   6.6472656e+01
   7.0027344e+01   4.6210938e+01   6.6294922e+01
   7.0205078e+01   4.6210938e+01   6.6472656e+01
   7.0027344e+01   4.6210938e+01   6.6650391e+01
   6.9849609e+01   4.6210938e+01   6.6472656e+01
   7.0027344e+01   4.6033203e+01   6.6828125e+01
   7.0205078e+01   4.5855469e+01   6.6828125e+01
   7.0027344e+01   4.5677734e+01   6.6828125e+01
   6.9849609e+01   4.5855469e+01   6.6828125e+01
   7.1161396e+01   4.5876689e+01   6.6718037e+01
   7.1093750e+01   4.6033203e+01   6.6472656e+01
   7.1093750e+01   4.5855469e+01   6.6294922e+01
   7.1093750e+01   4.5677734e+01   6.6423486e+01
   7.0738281e+01   4.6210938e+01   6.6294922e+01
   7.0916016e+01   4.6210938e+01   6.6472656e+01
   7.0738281e+01   4.6210938e+01   6.6650391e+01
   7.0560547e+01   4.6210938e+01   6.6472656e+01
   7.0738281e+01   4.6033203e+01   6.6828125e+01
   7.0983662e+01   4.5876689e+01   6.6895771e+01
   7.0845625e+01   4.5698955e+01   6.6806904e+01
   7.0560547e+01   4.5855469e+01   6.6828125e+01
   7.0382812e+01   4.6566406e+01   6.6294922e+01
   7.0382812e+01   4.6388672e+01   6.6472656e+01
   7.0027344e+01   4.6388672e+01   6.6828125e+01
   6.8960938e+01   4.7099609e+01   6.5761719e+01
   6.9671875e+01   4.5855469e+01   6.7361328e+01
   6.9671875e+01   4.6033203e+01   6.7183594e+01
   6.9671875e+01   4.5855469e+01   6.7005859e+01
   6.9671875e+01   4.5677734e+01   6.7183594e+01
   6.9316406e+01   4.6210938e+01   6.7005859e+01
   6.9494141e+01   4.6210938e+01   6.7183594e+01
   6.9847400e+01   4.5940972e+01   6.7759857e+01
   7.0373336e+01   4.5878563e+01   6.7351393e+01
   7.0395596e+01   4.6034037e+01   6.7195918e+01
   7.0382812e+01   4.5855469e+01   6.7005859e+01
   7.0382812e+01   4.5677734e+01   6.7134424e+01
   7.0027344e+01   4.6210938e+01   6.7005859e+01
   6.9849609e+01   4.6210938e+01   6.7183594e+01
   7.0195602e+01   4.5878563e+01   6.7484605e+01
   7.0133648e+01   4.5699995e+01   6.7472281e+01
   6.9825023e+01   4.5830884e+01   6.7514477e+01
   7.1026104e+01   4.6011983e+01   6.6938213e+01
   7.1271484e+01   4.6210938e+01   6.6472656e+01
   7.1249107e+01   4.6100851e+01   6.6760479e+01
   7.1203838e+01   4.6011983e+01   6.6760479e+01
   7.1072529e+01   4.4454814e+01   6.5918232e+01
   7.0894795e+01   4.4454814e+01   6.6095967e+01
   7.0916016e+01   4.4789062e+01   6.6344092e+01
   7.0683816e+01   4.4843527e+01   6.6595926e+01
   7.1059348e+01   4.5267802e+01   6.6477951e+01
   7.1059348e+01   4.5356669e+01   6.6389084e+01
   7.1038396e+01   4.5089178e+01   6.6239568e+01
   7.0950418e+01   4.5021262e+01   6.6467361e+01
   7.0950148e+01   4.5576574e+01   6.6635354e+01
   7.0882502e+01   4.5466486e+01   6.6567707e+01
   7.0916016e+01   4.5500000e+01   6.6423486e+01
   7.0744465e+01   4.5555354e+01   6.6705744e+01
   7.0704768e+01   4.5466486e+01   6.6616877e+01
   7.0900979e+01   4.5576574e+01   6.6684523e+01
   7.0670365e+01   4.5323155e+01   6.6849076e+01
   7.0704768e+01   4.5288752e+01   6.6705744e+01
   7.0683816e+01   4.5021262e+01   6.6684793e+01
   7.0560547e+01   4.5144531e+01   6.6739258e+01
   7.0559658e+01   4.5212448e+01   6.6916104e+01
   6.9684535e+01   4.4256693e+01   6.7151396e+01
   7.0163273e+01   4.4844361e+01   6.7190623e+01
   7.0217738e+01   4.4789896e+01   6.7067354e+01
   6.9945842e+01   4.4755494e+01   6.7408055e+01
   6.9985539e+01   4.4844361e+01   6.7319187e+01
   7.0314896e+01   4.5323155e+01   6.7244242e+01
   7.0348410e+01   4.5356669e+01   6.7100021e+01
   7.0327459e+01   4.5089178e+01   6.6950506e+01
   7.0381924e+01   4.5123581e+01   6.7093838e+01
   7.0272994e+01   4.4965908e+01   6.7122945e+01
   7.0272994e+01   4.5054775e+01   6.7162643e+01
   7.0238172e+01   4.5577614e+01   6.7345252e+01
   7.0171564e+01   4.5466486e+01   6.7278645e+01
   7.0205078e+01   4.5500000e+01   6.7134424e+01
   7.0033527e+01   4.5555354e+01   6.7416682e+01
   6.9993830e+01   4.5466486e+01   6.7327814e+01
   7.0189002e+01   4.5577614e+01   6.7394422e+01
   7.0033527e+01   4.5377619e+01   6.7505549e+01
   6.9993830e+01   4.5288752e+01   6.7416682e+01
   6.9933182e+01   4.4932395e+01   6.7484598e+01
   6.9972879e+01   4.5021262e+01   6.7395730e+01
   6.9849609e+01   4.5144531e+01   6.7450195e+01
   7.1270596e+01   4.5212448e+01   6.6205166e+01
   7.1072529e+01   4.5876689e+01   6.6629170e+01
   7.1072529e+01   4.5698955e+01   6.6580000e+01
   7.0894795e+01   4.5876689e+01   6.6806904e+01
   7.0689111e+01   4.5677734e+01   6.6828125e+01
   7.0360553e+01   4.5699995e+01   6.7289898e+01
   7.0040127e+01   4.6034037e+01   6.7506865e+01
   7.0042455e+01   4.5742017e+01   6.7558822e+01
   6.9953588e+01   4.5653149e+01   6.7514477e+01
   6.9892670e+01   4.5940972e+01   6.7715336e+01
   6.9913891e+01   4.5919751e+01   6.7558822e+01
   7.1026104e+01   4.6100851e+01   6.6983482e+01
   7.1316754e+01   4.6210938e+01   6.6650391e+01
