   6.6117188e+01   4.3011719e+01   6.6294922e+01
   6.6117188e+01   4.2833984e+01   6.6472656e+01
   6.5761719e+01   4.3367188e+01   6.6294922e+01
   6.5939453e+01   4.3367188e+01   6.6472656e+01
   6.5761719e+01   4.3367188e+01   6.6650391e+01
   6.5583984e+01   4.3367188e+01   6.6472656e+01
   6.5761719e+01   4.3189453e+01   6.6828125e+01
   6.5939453e+01   4.3011719e+01   6.6828125e+01
   6.5761719e+01   4.2833984e+01   6.6828125e+01
   6.5583984e+01   4.3011719e+01   6.6828125e+01
   6.6828125e+01   4.3011719e+01   6.6650391e+01
   6.6828125e+01   4.3189453e+01   6.6472656e+01
   6.6828125e+01   4.3011719e+01   6.6294922e+01
   6.6828125e+01   4.2833984e+01   6.6472656e+01
   6.6472656e+01   4.3367188e+01   6.6294922e+01
   6.6650391e+01   4.3367188e+01   6.6472656e+01
   6.6472656e+01   4.3367188e+01   6.6650391e+01
   6.6294922e+01   4.3367188e+01   6.6472656e+01
   6.6472656e+01   4.3189453e+01   6.6828125e+01
   6.6650391e+01   4.3011719e+01   6.6828125e+01
   6.6472656e+01   4.2833984e+01   6.6828125e+01
   6.6294922e+01   4.3011719e+01   6.6828125e+01
   6.6117188e+01   4.3722656e+01   6.6650391e+01
   6.6117188e+01   4.3900391e+01   6.6472656e+01
   6.6117188e+01   4.3722656e+01   6.6294922e+01
   6.6117188e+01   4.3544922e+01   6.6472656e+01
   6.5761719e+01   4.4078125e+01   6.6294922e+01
   6.5939453e+01   4.4078125e+01   6.6472656e+01
   6.5761719e+01   4.4078125e+01   6.6650391e+01
   6.5583984e+01   4.4078125e+01   6.6472656e+01
   6.5761719e+01   4.3900391e+01   6.6828125e+01
   6.5939453e+01   4.3722656e+01   6.6828125e+01
   6.5761719e+01   4.3544922e+01   6.6828125e+01
   6.5583984e+01   4.3722656e+01   6.6828125e+01
   6.6828125e+01   4.3722656e+01   6.6650391e+01
   6.6828125e+01   4.3900391e+01   6.6472656e+01
   6.6828125e+01   4.3722656e+01   6.6294922e+01
   6.6828125e+01   4.3544922e+01   6.6472656e+01
   6.6472656e+01   4.4078125e+01   6.6294922e+01
   6.6650391e+01   4.4078125e+01   6.6472656e+01
   6.6472656e+01   4.4078125e+01   6.6650391e+01
   6.6294922e+01   4.4078125e+01   6.6472656e+01
   6.6472656e+01   4.3900391e+01   6.6828125e+01
   6.6650391e+01   4.3722656e+01   6.6828125e+01
   6.6472656e+01   4.3544922e+01   6.6828125e+01
   6.6294922e+01   4.3722656e+01   6.6828125e+01
   6.7539062e+01   4.3011719e+01   6.5939453e+01
   6.7539062e+01   4.3189453e+01   6.5761719e+01
   6.7539062e+01   4.3011719e+01   6.5583984e+01
   6.7539062e+01   4.2833984e+01   6.5761719e+01
   6.7183594e+01   4.3367188e+01   6.5583984e+01
   6.7361328e+01   4.3367188e+01   6.5761719e+01
   6.7183594e+01   4.3367188e+01   6.5939453e+01
   6.7005859e+01   4.3367188e+01   6.5761719e+01
   6.7183594e+01   4.3189453e+01   6.6117188e+01
   6.7361328e+01   4.3011719e+01   6.6117188e+01
   6.7183594e+01   4.2833984e+01   6.6117188e+01
   6.7005859e+01   4.3011719e+01   6.6117188e+01
   6.8250000e+01   4.3011719e+01   6.5939453e+01
   6.8250000e+01   4.3189453e+01   6.5761719e+01
   6.8250000e+01   4.3011719e+01   6.5583984e+01
   6.8250000e+01   4.2833984e+01   6.5761719e+01
   6.7894531e+01   4.3367188e+01   6.5583984e+01
   6.8072266e+01   4.3367188e+01   6.5761719e+01
   6.7894531e+01   4.3367188e+01   6.5939453e+01
   6.7716797e+01   4.3367188e+01   6.5761719e+01
   6.7894531e+01   4.3189453e+01   6.6117188e+01
   6.8072266e+01   4.3011719e+01   6.6117188e+01
   6.7894531e+01   4.2833984e+01   6.6117188e+01
   6.7716797e+01   4.3011719e+01   6.6117188e+01
   6.7539062e+01   4.3722656e+01   6.5939453e+01
   6.7539062e+01   4.3900391e+01   6.5761719e+01
   6.7539062e+01   4.3722656e+01   6.5583984e+01
   6.7539062e+01   4.3544922e+01   6.5761719e+01
   6.7183594e+01   4.4078125e+01   6.5583984e+01
   6.7361328e+01   4.4078125e+01   6.5761719e+01
   6.7183594e+01   4.4078125e+01   6.5939453e+01
   6.7005859e+01   4.4078125e+01   6.5761719e+01
   6.7183594e+01   4.3900391e+01   6.6117188e+01
   6.7361328e+01   4.3722656e+01   6.6117188e+01
   6.7183594e+01   4.3544922e+01   6.6117188e+01
   6.7005859e+01   4.3722656e+01   6.6117188e+01
   6.8250000e+01   4.3722656e+01   6.5939453e+01
   6.8250000e+01   4.3900391e+01   6.5761719e+01
   6.8250000e+01   4.3722656e+01   6.5583984e+01
   6.8250000e+01   4.3544922e+01   6.5761719e+01
   6.7894531e+01   4.4078125e+01   6.5583984e+01
   6.8072266e+01   4.4078125e+01   6.5761719e+01
   6.7894531e+01   4.4078125e+01   6.5939453e+01
   6.7716797e+01   4.4078125e+01   6.5761719e+01
   6.7894531e+01   4.3900391e+01   6.6117188e+01
   6.8072266e+01   4.3722656e+01   6.6117188e+01
   6.7894531e+01   4.3544922e+01   6.6117188e+01
   6.7716797e+01   4.3722656e+01   6.6117188e+01
   6.7539062e+01   4.3011719e+01   6.6650391e+01
   6.7539062e+01   4.3189453e+01   6.6472656e+01
   6.7539062e+01   4.3011719e+01   6.6294922e+01
   6.7539062e+01   4.2833984e+01   6.6472656e+01
   6.7183594e+01   4.3367188e+01   6.6294922e+01
   6.7361328e+01   4.3367188e+01   6.6472656e+01
   6.7183594e+01   4.3367188e+01   6.6650391e+01
   6.7005859e+01   4.3367188e+01   6.6472656e+01
   6.7183594e+01   4.3189453e+01   6.6828125e+01
   6.7361328e+01   4.3011719e+01   6.6828125e+01
   6.7183594e+01   4.2833984e+01   6.6828125e+01
   6.7005859e+01   4.3011719e+01   6.6828125e+01
   6.8250000e+01   4.3011719e+01   6.6650391e+01
   6.8250000e+01   4.3189453e+01   6.6472656e+01
   6.8250000e+01   4.3011719e+01   6.6294922e+01
   6.8250000e+01   4.2833984e+01   6.6472656e+01
   6.7894531e+01   4.3367188e+01   6.6294922e+01
   6.8072266e+01   4.3367188e+01   6.6472656e+01
   6.7894531e+01   4.3367188e+01   6.6650391e+01
   6.7716797e+01   4.3367188e+01   6.6472656e+01
   6.7894531e+01   4.3189453e+01   6.6828125e+01
   6.8072266e+01   4.3011719e+01   6.6828125e+01
   6.7894531e+01   4.2833984e+01   6.6828125e+01
   6.7716797e+01   4.3011719e+01   6.6828125e+01
   6.7539062e+01   4.3722656e+01   6.6650391e+01
   6.7539062e+01   4.3900391e+01   6.6472656e+01
   6.7539062e+01   4.3722656e+01   6.6294922e+01
   6.7539062e+01   4.3544922e+01   6.6472656e+01
   6.7183594e+01   4.4078125e+01   6.6294922e+01
   6.7361328e+01   4.4078125e+01   6.6472656e+01
   6.7183594e+01   4.4078125e+01   6.6650391e+01
   6.7005859e+01   4.4078125e+01   6.6472656e+01
   6.7183594e+01   4.3900391e+01   6.6828125e+01
   6.7361328e+01   4.3722656e+01   6.6828125e+01
   6.7183594e+01   4.3544922e+01   6.6828125e+01
   6.7005859e+01   4.3722656e+01   6.6828125e+01
   6.8250000e+01   4.3722656e+01   6.6650391e+01
   6.8250000e+01   4.3900391e+01   6.6472656e+01
   6.8250000e+01   4.3722656e+01   6.6294922e+01
   6.8250000e+01   4.3544922e+01   6.6472656e+01
   6.7894531e+01   4.4078125e+01   6.6294922e+01
   6.8072266e+01   4.4078125e+01   6.6472656e+01
   6.7894531e+01   4.4078125e+01   6.6650391e+01
   6.7716797e+01   4.4078125e+01   6.6472656e+01
   6.7894531e+01   4.3900391e+01   6.6828125e+01
   6.8072266e+01   4.3722656e+01   6.6828125e+01
   6.7894531e+01   4.3544922e+01   6.6828125e+01
   6.7716797e+01   4.3722656e+01   6.6828125e+01
   6.5495117e+01   4.4522461e+01   6.5672852e+01
   6.5495117e+01   4.4344727e+01   6.5850586e+01
   6.6117188e+01   4.4433594e+01   6.5939453e+01
   6.6117188e+01   4.4611328e+01   6.5761719e+01
   6.6117188e+01   4.4433594e+01   6.5583984e+01
   6.6117188e+01   4.4255859e+01   6.5761719e+01
   6.5761719e+01   4.4789062e+01   6.5583984e+01
   6.5939453e+01   4.4789062e+01   6.5761719e+01
   6.5761719e+01   4.4789062e+01   6.5939453e+01
   6.5583984e+01   4.4789062e+01   6.5761719e+01
   6.5850586e+01   4.4344727e+01   6.5495117e+01
   6.5672852e+01   4.4522461e+01   6.5495117e+01
   6.5761719e+01   4.4611328e+01   6.6117188e+01
   6.5939453e+01   4.4433594e+01   6.6117188e+01
   6.5761719e+01   4.4255859e+01   6.6117188e+01
   6.5583984e+01   4.4433594e+01   6.6117188e+01
   6.6828125e+01   4.4433594e+01   6.5939453e+01
   6.6828125e+01   4.4611328e+01   6.5761719e+01
   6.6828125e+01   4.4433594e+01   6.5583984e+01
   6.6828125e+01   4.4255859e+01   6.5761719e+01
   6.6472656e+01   4.4789062e+01   6.5583984e+01
   6.6650391e+01   4.4789062e+01   6.5761719e+01
   6.6472656e+01   4.4789062e+01   6.5939453e+01
   6.6294922e+01   4.4789062e+01   6.5761719e+01
   6.6561523e+01   4.4522461e+01   6.5495117e+01
   6.6383789e+01   4.4344727e+01   6.5495117e+01
   6.6472656e+01   4.4611328e+01   6.6117188e+01
   6.6650391e+01   4.4433594e+01   6.6117188e+01
   6.6472656e+01   4.4255859e+01   6.6117188e+01
   6.6294922e+01   4.4433594e+01   6.6117188e+01
   6.5495117e+01   4.5233398e+01   6.5850586e+01
   6.5495117e+01   4.5055664e+01   6.5672852e+01
   6.6117188e+01   4.5144531e+01   6.5939453e+01
   6.6117188e+01   4.5322266e+01   6.5761719e+01
   6.6117188e+01   4.5144531e+01   6.5583984e+01
   6.6117188e+01   4.4966797e+01   6.5761719e+01
   6.5761719e+01   4.5500000e+01   6.5583984e+01
   6.5939453e+01   4.5500000e+01   6.5761719e+01
   6.5761719e+01   4.5500000e+01   6.5939453e+01
   6.5583984e+01   4.5500000e+01   6.5761719e+01
   6.5850586e+01   4.5233398e+01   6.5495117e+01
   6.5672852e+01   4.5055664e+01   6.5495117e+01
   6.5761719e+01   4.5322266e+01   6.6117188e+01
   6.5939453e+01   4.5144531e+01   6.6117188e+01
   6.5761719e+01   4.4966797e+01   6.6117188e+01
   6.5583984e+01   4.5144531e+01   6.6117188e+01
   6.6828125e+01   4.5144531e+01   6.5939453e+01
   6.6828125e+01   4.5322266e+01   6.5761719e+01
   6.6828125e+01   4.5144531e+01   6.5583984e+01
   6.6828125e+01   4.4966797e+01   6.5761719e+01
   6.6472656e+01   4.5500000e+01   6.5583984e+01
   6.6650391e+01   4.5500000e+01   6.5761719e+01
   6.6472656e+01   4.5500000e+01   6.5939453e+01
   6.6294922e+01   4.5500000e+01   6.5761719e+01
   6.6561523e+01   4.5055664e+01   6.5495117e+01
   6.6383789e+01   4.5233398e+01   6.5495117e+01
   6.6472656e+01   4.5322266e+01   6.6117188e+01
   6.6650391e+01   4.5144531e+01   6.6117188e+01
   6.6472656e+01   4.4966797e+01   6.6117188e+01
   6.6294922e+01   4.5144531e+01   6.6117188e+01
   6.5495117e+01   4.4522461e+01   6.6561523e+01
   6.5495117e+01   4.4344727e+01   6.6383789e+01
   6.6117188e+01   4.4433594e+01   6.6650391e+01
   6.6117188e+01   4.4611328e+01   6.6472656e+01
   6.6117188e+01   4.4433594e+01   6.6294922e+01
   6.6117188e+01   4.4255859e+01   6.6472656e+01
   6.5761719e+01   4.4789062e+01   6.6294922e+01
   6.5939453e+01   4.4789062e+01   6.6472656e+01
   6.5761719e+01   4.4789062e+01   6.6650391e+01
   6.5583984e+01   4.4789062e+01   6.6472656e+01
   6.5761719e+01   4.4611328e+01   6.6828125e+01
   6.5939453e+01   4.4433594e+01   6.6828125e+01
   6.5761719e+01   4.4255859e+01   6.6828125e+01
   6.5583984e+01   4.4433594e+01   6.6828125e+01
   6.6828125e+01   4.4433594e+01   6.6650391e+01
   6.6828125e+01   4.4611328e+01   6.6472656e+01
   6.6828125e+01   4.4433594e+01   6.6294922e+01
   6.6828125e+01   4.4255859e+01   6.6472656e+01
   6.6472656e+01   4.4789062e+01   6.6294922e+01
   6.6650391e+01   4.4789062e+01   6.6472656e+01
   6.6472656e+01   4.4789062e+01   6.6650391e+01
   6.6294922e+01   4.4789062e+01   6.6472656e+01
   6.6472656e+01   4.4611328e+01   6.6828125e+01
   6.6650391e+01   4.4433594e+01   6.6828125e+01
   6.6472656e+01   4.4255859e+01   6.6828125e+01
   6.6294922e+01   4.4433594e+01   6.6828125e+01
   6.5495117e+01   4.5233398e+01   6.6383789e+01
   6.5495117e+01   4.5055664e+01   6.6561523e+01
   6.6117188e+01   4.5144531e+01   6.6650391e+01
   6.6117188e+01   4.5322266e+01   6.6472656e+01
   6.6117188e+01   4.5144531e+01   6.6294922e+01
   6.6117188e+01   4.4966797e+01   6.6472656e+01
   6.5761719e+01   4.5500000e+01   6.6294922e+01
   6.5939453e+01   4.5500000e+01   6.6472656e+01
   6.5761719e+01   4.5500000e+01   6.6650391e+01
   6.5583984e+01   4.5500000e+01   6.6472656e+01
   6.5761719e+01   4.5322266e+01   6.6828125e+01
   6.5939453e+01   4.5144531e+01   6.6828125e+01
   6.5761719e+01   4.4966797e+01   6.6828125e+01
   6.5583984e+01   4.5144531e+01   6.6828125e+01
   6.6828125e+01   4.5144531e+01   6.6650391e+01
   6.6828125e+01   4.5322266e+01   6.6472656e+01
   6.6828125e+01   4.5144531e+01   6.6294922e+01
   6.6828125e+01   4.4966797e+01   6.6472656e+01
   6.6472656e+01   4.5500000e+01   6.6294922e+01
   6.6650391e+01   4.5500000e+01   6.6472656e+01
   6.6472656e+01   4.5500000e+01   6.6650391e+01
   6.6294922e+01   4.5500000e+01   6.6472656e+01
   6.6472656e+01   4.5322266e+01   6.6828125e+01
   6.6650391e+01   4.5144531e+01   6.6828125e+01
   6.6472656e+01   4.4966797e+01   6.6828125e+01
   6.6294922e+01   4.5144531e+01   6.6828125e+01
   6.7539062e+01   4.4433594e+01   6.5939453e+01
   6.7539062e+01   4.4611328e+01   6.5761719e+01
   6.7539062e+01   4.4433594e+01   6.5583984e+01
   6.7539062e+01   4.4255859e+01   6.5761719e+01
   6.7183594e+01   4.4789062e+01   6.5583984e+01
   6.7361328e+01   4.4789062e+01   6.5761719e+01
   6.7183594e+01   4.4789062e+01   6.5939453e+01
   6.7005859e+01   4.4789062e+01   6.5761719e+01
   6.7183594e+01   4.4611328e+01   6.6117188e+01
   6.7361328e+01   4.4433594e+01   6.6117188e+01
   6.7183594e+01   4.4255859e+01   6.6117188e+01
   6.7005859e+01   4.4433594e+01   6.6117188e+01
   6.8250000e+01   4.4433594e+01   6.5939453e+01
   6.8250000e+01   4.4611328e+01   6.5761719e+01
   6.8250000e+01   4.4433594e+01   6.5583984e+01
   6.8250000e+01   4.4255859e+01   6.5761719e+01
   6.7894531e+01   4.4789062e+01   6.5583984e+01
   6.8072266e+01   4.4789062e+01   6.5761719e+01
   6.7894531e+01   4.4789062e+01   6.5939453e+01
   6.7716797e+01   4.4789062e+01   6.5761719e+01
   6.7894531e+01   4.4611328e+01   6.6117188e+01
   6.8072266e+01   4.4433594e+01   6.6117188e+01
   6.7894531e+01   4.4255859e+01   6.6117188e+01
   6.7716797e+01   4.4433594e+01   6.6117188e+01
   6.7539062e+01   4.5144531e+01   6.5939453e+01
   6.7539062e+01   4.5322266e+01   6.5761719e+01
   6.7539062e+01   4.5144531e+01   6.5583984e+01
   6.7539062e+01   4.4966797e+01   6.5761719e+01
   6.7183594e+01   4.5500000e+01   6.5583984e+01
   6.7361328e+01   4.5500000e+01   6.5761719e+01
   6.7183594e+01   4.5500000e+01   6.5939453e+01
   6.7005859e+01   4.5500000e+01   6.5761719e+01
   6.7183594e+01   4.5322266e+01   6.6117188e+01
   6.7361328e+01   4.5144531e+01   6.6117188e+01
   6.7183594e+01   4.4966797e+01   6.6117188e+01
   6.7005859e+01   4.5144531e+01   6.6117188e+01
   6.8250000e+01   4.5144531e+01   6.5939453e+01
   6.8250000e+01   4.5322266e+01   6.5761719e+01
   6.8250000e+01   4.5144531e+01   6.5583984e+01
   6.8250000e+01   4.4966797e+01   6.5761719e+01
   6.7894531e+01   4.5500000e+01   6.5583984e+01
   6.8072266e+01   4.5500000e+01   6.5761719e+01
   6.7894531e+01   4.5500000e+01   6.5939453e+01
   6.7716797e+01   4.5500000e+01   6.5761719e+01
   6.7894531e+01   4.5322266e+01   6.6117188e+01
   6.8072266e+01   4.5144531e+01   6.6117188e+01
   6.7894531e+01   4.4966797e+01   6.6117188e+01
   6.7716797e+01   4.5144531e+01   6.6117188e+01
   6.7539062e+01   4.4433594e+01   6.6650391e+01
   6.7539062e+01   4.4611328e+01   6.6472656e+01
   6.7539062e+01   4.4433594e+01   6.6294922e+01
   6.7539062e+01   4.4255859e+01   6.6472656e+01
   6.7183594e+01   4.4789062e+01   6.6294922e+01
   6.7361328e+01   4.4789062e+01   6.6472656e+01
   6.7183594e+01   4.4789062e+01   6.6650391e+01
   6.7005859e+01   4.4789062e+01   6.6472656e+01
   6.7183594e+01   4.4611328e+01   6.6828125e+01
   6.7361328e+01   4.4433594e+01   6.6828125e+01
   6.7183594e+01   4.4255859e+01   6.6828125e+01
   6.7005859e+01   4.4433594e+01   6.6828125e+01
   6.8250000e+01   4.4433594e+01   6.6650391e+01
   6.8250000e+01   4.4611328e+01   6.6472656e+01
   6.8250000e+01   4.4433594e+01   6.6294922e+01
   6.8250000e+01   4.4255859e+01   6.6472656e+01
   6.7894531e+01   4.4789062e+01   6.6294922e+01
   6.8072266e+01   4.4789062e+01   6.6472656e+01
   6.7894531e+01   4.4789062e+01   6.6650391e+01
   6.7716797e+01   4.4789062e+01   6.6472656e+01
   6.7894531e+01   4.4611328e+01   6.6828125e+01
   6.8072266e+01   4.4433594e+01   6.6828125e+01
   6.7894531e+01   4.4255859e+01   6.6828125e+01
   6.7716797e+01   4.4433594e+01   6.6828125e+01
   6.7539062e+01   4.5144531e+01   6.6650391e+01
   6.7539062e+01   4.5322266e+01   6.6472656e+01
   6.7539062e+01   4.5144531e+01   6.6294922e+01
   6.7539062e+01   4.4966797e+01   6.6472656e+01
   6.7183594e+01   4.5500000e+01   6.6294922e+01
   6.7361328e+01   4.5500000e+01   6.6472656e+01
   6.7183594e+01   4.5500000e+01   6.6650391e+01
   6.7005859e+01   4.5500000e+01   6.6472656e+01
   6.7183594e+01   4.5322266e+01   6.6828125e+01
   6.7361328e+01   4.5144531e+01   6.6828125e+01
   6.7183594e+01   4.4966797e+01   6.6828125e+01
   6.7005859e+01   4.5144531e+01   6.6828125e+01
   6.8250000e+01   4.5144531e+01   6.6650391e+01
   6.8250000e+01   4.5322266e+01   6.6472656e+01
   6.8250000e+01   4.5144531e+01   6.6294922e+01
   6.8250000e+01   4.4966797e+01   6.6472656e+01
   6.7894531e+01   4.5500000e+01   6.6294922e+01
   6.8072266e+01   4.5500000e+01   6.6472656e+01
   6.7894531e+01   4.5500000e+01   6.6650391e+01
   6.7716797e+01   4.5500000e+01   6.6472656e+01
   6.7894531e+01   4.5322266e+01   6.6828125e+01
   6.8072266e+01   4.5144531e+01   6.6828125e+01
   6.7894531e+01   4.4966797e+01   6.6828125e+01
   6.7716797e+01   4.5144531e+01   6.6828125e+01
   6.6117188e+01   4.3011719e+01   6.7361328e+01
   6.6117188e+01   4.3189453e+01   6.7183594e+01
   6.6117188e+01   4.3011719e+01   6.7005859e+01
   6.6117188e+01   4.2833984e+01   6.7183594e+01
   6.5761719e+01   4.3367188e+01   6.7005859e+01
   6.5939453e+01   4.3367188e+01   6.7183594e+01
   6.5761719e+01   4.3367188e+01   6.7361328e+01
   6.5583984e+01   4.3367188e+01   6.7183594e+01
   6.5761719e+01   4.3189453e+01   6.7539062e+01
   6.5939453e+01   4.3011719e+01   6.7539062e+01
   6.5761719e+01   4.2833984e+01   6.7539062e+01
   6.5583984e+01   4.3011719e+01   6.7539062e+01
   6.6828125e+01   4.3011719e+01   6.7361328e+01
   6.6828125e+01   4.3189453e+01   6.7183594e+01
   6.6828125e+01   4.3011719e+01   6.7005859e+01
   6.6828125e+01   4.2833984e+01   6.7183594e+01
   6.6472656e+01   4.3367188e+01   6.7005859e+01
   6.6650391e+01   4.3367188e+01   6.7183594e+01
   6.6472656e+01   4.3367188e+01   6.7361328e+01
   6.6294922e+01   4.3367188e+01   6.7183594e+01
   6.6472656e+01   4.3189453e+01   6.7539062e+01
   6.6650391e+01   4.3011719e+01   6.7539062e+01
   6.6472656e+01   4.2833984e+01   6.7539062e+01
   6.6294922e+01   4.3011719e+01   6.7539062e+01
   6.6117188e+01   4.3722656e+01   6.7361328e+01
   6.6117188e+01   4.3900391e+01   6.7183594e+01
   6.6117188e+01   4.3722656e+01   6.7005859e+01
   6.6117188e+01   4.3544922e+01   6.7183594e+01
   6.5761719e+01   4.4078125e+01   6.7005859e+01
   6.5939453e+01   4.4078125e+01   6.7183594e+01
   6.5761719e+01   4.4078125e+01   6.7361328e+01
   6.5583984e+01   4.4078125e+01   6.7183594e+01
   6.5761719e+01   4.3900391e+01   6.7539062e+01
   6.5939453e+01   4.3722656e+01   6.7539062e+01
   6.5761719e+01   4.3544922e+01   6.7539062e+01
   6.5583984e+01   4.3722656e+01   6.7539062e+01
   6.6828125e+01   4.3722656e+01   6.7361328e+01
   6.6828125e+01   4.3900391e+01   6.7183594e+01
   6.6828125e+01   4.3722656e+01   6.7005859e+01
   6.6828125e+01   4.3544922e+01   6.7183594e+01
   6.6472656e+01   4.4078125e+01   6.7005859e+01
   6.6650391e+01   4.4078125e+01   6.7183594e+01
   6.6472656e+01   4.4078125e+01   6.7361328e+01
   6.6294922e+01   4.4078125e+01   6.7183594e+01
   6.6472656e+01   4.3900391e+01   6.7539062e+01
   6.6650391e+01   4.3722656e+01   6.7539062e+01
   6.6472656e+01   4.3544922e+01   6.7539062e+01
   6.6294922e+01   4.3722656e+01   6.7539062e+01
   6.6117188e+01   4.3011719e+01   6.8072266e+01
   6.6117188e+01   4.3189453e+01   6.7894531e+01
   6.6117188e+01   4.3011719e+01   6.7716797e+01
   6.6117188e+01   4.2833984e+01   6.7894531e+01
   6.5761719e+01   4.3367188e+01   6.7716797e+01
   6.5939453e+01   4.3367188e+01   6.7894531e+01
   6.5761719e+01   4.3367188e+01   6.8072266e+01
   6.5939453e+01   4.3011719e+01   6.8250000e+01
   6.6828125e+01   4.3011719e+01   6.8072266e+01
   6.6828125e+01   4.3189453e+01   6.7894531e+01
   6.6828125e+01   4.3011719e+01   6.7716797e+01
   6.6828125e+01   4.2833984e+01   6.7894531e+01
   6.6472656e+01   4.3367188e+01   6.7716797e+01
   6.6650391e+01   4.3367188e+01   6.7894531e+01
   6.6472656e+01   4.3367188e+01   6.8072266e+01
   6.6294922e+01   4.3367188e+01   6.7894531e+01
   6.6472656e+01   4.3189453e+01   6.8250000e+01
   6.6650391e+01   4.3011719e+01   6.8250000e+01
   6.6472656e+01   4.2833984e+01   6.8250000e+01
   6.6294922e+01   4.3011719e+01   6.8250000e+01
   6.6117188e+01   4.3722656e+01   6.8072266e+01
   6.6117188e+01   4.3900391e+01   6.7894531e+01
   6.6117188e+01   4.3722656e+01   6.7716797e+01
   6.6117188e+01   4.3544922e+01   6.7894531e+01
   6.5761719e+01   4.4078125e+01   6.7716797e+01
   6.5939453e+01   4.4078125e+01   6.7894531e+01
   6.5761719e+01   4.4078125e+01   6.8072266e+01
   6.5583984e+01   4.4078125e+01   6.7894531e+01
   6.5939453e+01   4.3722656e+01   6.8250000e+01
   6.6828125e+01   4.3722656e+01   6.8072266e+01
   6.6828125e+01   4.3900391e+01   6.7894531e+01
   6.6828125e+01   4.3722656e+01   6.7716797e+01
   6.6828125e+01   4.3544922e+01   6.7894531e+01
   6.6472656e+01   4.4078125e+01   6.7716797e+01
   6.6650391e+01   4.4078125e+01   6.7894531e+01
   6.6472656e+01   4.4078125e+01   6.8072266e+01
   6.6294922e+01   4.4078125e+01   6.7894531e+01
   6.6472656e+01   4.3900391e+01   6.8250000e+01
   6.6650391e+01   4.3722656e+01   6.8250000e+01
   6.6472656e+01   4.3544922e+01   6.8250000e+01
   6.6294922e+01   4.3722656e+01   6.8250000e+01
   6.7539062e+01   4.3011719e+01   6.7361328e+01
   6.7539062e+01   4.3189453e+01   6.7183594e+01
   6.7539062e+01   4.3011719e+01   6.7005859e+01
   6.7539062e+01   4.2833984e+01   6.7183594e+01
   6.7183594e+01   4.3367188e+01   6.7005859e+01
   6.7361328e+01   4.3367188e+01   6.7183594e+01
   6.7183594e+01   4.3367188e+01   6.7361328e+01
   6.7005859e+01   4.3367188e+01   6.7183594e+01
   6.7183594e+01   4.3189453e+01   6.7539062e+01
   6.7361328e+01   4.3011719e+01   6.7539062e+01
   6.7183594e+01   4.2833984e+01   6.7539062e+01
   6.7005859e+01   4.3011719e+01   6.7539062e+01
   6.8250000e+01   4.3011719e+01   6.7361328e+01
   6.8250000e+01   4.3189453e+01   6.7183594e+01
   6.8250000e+01   4.3011719e+01   6.7005859e+01
   6.8250000e+01   4.2833984e+01   6.7183594e+01
   6.7894531e+01   4.3367188e+01   6.7005859e+01
   6.8072266e+01   4.3367188e+01   6.7183594e+01
   6.7894531e+01   4.3367188e+01   6.7361328e+01
   6.7716797e+01   4.3367188e+01   6.7183594e+01
   6.7894531e+01   4.3189453e+01   6.7539062e+01
   6.8072266e+01   4.3011719e+01   6.7539062e+01
   6.7894531e+01   4.2833984e+01   6.7539062e+01
   6.7716797e+01   4.3011719e+01   6.7539062e+01
   6.7539062e+01   4.3722656e+01   6.7361328e+01
   6.7539062e+01   4.3900391e+01   6.7183594e+01
   6.7539062e+01   4.3722656e+01   6.7005859e+01
   6.7539062e+01   4.3544922e+01   6.7183594e+01
   6.7183594e+01   4.4078125e+01   6.7005859e+01
   6.7361328e+01   4.4078125e+01   6.7183594e+01
   6.7183594e+01   4.4078125e+01   6.7361328e+01
   6.7005859e+01   4.4078125e+01   6.7183594e+01
   6.7183594e+01   4.3900391e+01   6.7539062e+01
   6.7361328e+01   4.3722656e+01   6.7539062e+01
   6.7183594e+01   4.3544922e+01   6.7539062e+01
   6.7005859e+01   4.3722656e+01   6.7539062e+01
   6.8250000e+01   4.3722656e+01   6.7361328e+01
   6.8250000e+01   4.3900391e+01   6.7183594e+01
   6.8250000e+01   4.3722656e+01   6.7005859e+01
   6.8250000e+01   4.3544922e+01   6.7183594e+01
   6.7894531e+01   4.4078125e+01   6.7005859e+01
   6.8072266e+01   4.4078125e+01   6.7183594e+01
   6.7894531e+01   4.4078125e+01   6.7361328e+01
   6.7716797e+01   4.4078125e+01   6.7183594e+01
   6.7894531e+01   4.3900391e+01   6.7539062e+01
   6.8072266e+01   4.3722656e+01   6.7539062e+01
   6.7894531e+01   4.3544922e+01   6.7539062e+01
   6.7716797e+01   4.3722656e+01   6.7539062e+01
   6.7539062e+01   4.3011719e+01   6.8072266e+01
   6.7539062e+01   4.3189453e+01   6.7894531e+01
   6.7539062e+01   4.3011719e+01   6.7716797e+01
   6.7539062e+01   4.2833984e+01   6.7894531e+01
   6.7183594e+01   4.3367188e+01   6.7716797e+01
   6.7361328e+01   4.3367188e+01   6.7894531e+01
   6.7183594e+01   4.3367188e+01   6.8072266e+01
   6.7005859e+01   4.3367188e+01   6.7894531e+01
   6.7183594e+01   4.3189453e+01   6.8250000e+01
   6.7361328e+01   4.3011719e+01   6.8250000e+01
   6.7183594e+01   4.2833984e+01   6.8250000e+01
   6.7005859e+01   4.3011719e+01   6.8250000e+01
   6.8250000e+01   4.3011719e+01   6.8072266e+01
   6.8250000e+01   4.3189453e+01   6.7894531e+01
   6.8250000e+01   4.3011719e+01   6.7716797e+01
   6.8250000e+01   4.2833984e+01   6.7894531e+01
   6.7894531e+01   4.3367188e+01   6.7716797e+01
   6.8072266e+01   4.3367188e+01   6.7894531e+01
   6.7894531e+01   4.3367188e+01   6.8072266e+01
   6.7716797e+01   4.3367188e+01   6.7894531e+01
   6.7894531e+01   4.3189453e+01   6.8250000e+01
   6.8072266e+01   4.3011719e+01   6.8250000e+01
   6.7894531e+01   4.2833984e+01   6.8250000e+01
   6.7716797e+01   4.3011719e+01   6.8250000e+01
   6.7539062e+01   4.3722656e+01   6.8072266e+01
   6.7539062e+01   4.3900391e+01   6.7894531e+01
   6.7539062e+01   4.3722656e+01   6.7716797e+01
   6.7539062e+01   4.3544922e+01   6.7894531e+01
   6.7183594e+01   4.4078125e+01   6.7716797e+01
   6.7361328e+01   4.4078125e+01   6.7894531e+01
   6.7183594e+01   4.4078125e+01   6.8072266e+01
   6.7005859e+01   4.4078125e+01   6.7894531e+01
   6.7183594e+01   4.3900391e+01   6.8250000e+01
   6.7361328e+01   4.3722656e+01   6.8250000e+01
   6.7183594e+01   4.3544922e+01   6.8250000e+01
   6.7005859e+01   4.3722656e+01   6.8250000e+01
   6.8250000e+01   4.3722656e+01   6.8072266e+01
   6.8250000e+01   4.3900391e+01   6.7894531e+01
   6.8250000e+01   4.3722656e+01   6.7716797e+01
   6.8250000e+01   4.3544922e+01   6.7894531e+01
   6.7894531e+01   4.4078125e+01   6.7716797e+01
   6.8072266e+01   4.4078125e+01   6.7894531e+01
   6.7894531e+01   4.4078125e+01   6.8072266e+01
   6.7716797e+01   4.4078125e+01   6.7894531e+01
   6.7894531e+01   4.3900391e+01   6.8250000e+01
   6.8072266e+01   4.3722656e+01   6.8250000e+01
   6.7894531e+01   4.3544922e+01   6.8250000e+01
   6.7716797e+01   4.3722656e+01   6.8250000e+01
   6.6117188e+01   4.4433594e+01   6.7361328e+01
   6.6117188e+01   4.4611328e+01   6.7183594e+01
   6.6117188e+01   4.4433594e+01   6.7005859e+01
   6.6117188e+01   4.4255859e+01   6.7183594e+01
   6.5761719e+01   4.4789062e+01   6.7005859e+01
   6.5939453e+01   4.4789062e+01   6.7183594e+01
   6.5761719e+01   4.4789062e+01   6.7361328e+01
   6.5583984e+01   4.4789062e+01   6.7183594e+01
   6.5761719e+01   4.4611328e+01   6.7539062e+01
   6.5939453e+01   4.4433594e+01   6.7539062e+01
   6.5761719e+01   4.4255859e+01   6.7539062e+01
   6.5583984e+01   4.4433594e+01   6.7539062e+01
   6.6828125e+01   4.4433594e+01   6.7361328e+01
   6.6828125e+01   4.4611328e+01   6.7183594e+01
   6.6828125e+01   4.4433594e+01   6.7005859e+01
   6.6828125e+01   4.4255859e+01   6.7183594e+01
   6.6472656e+01   4.4789062e+01   6.7005859e+01
   6.6650391e+01   4.4789062e+01   6.7183594e+01
   6.6472656e+01   4.4789062e+01   6.7361328e+01
   6.6294922e+01   4.4789062e+01   6.7183594e+01
   6.6472656e+01   4.4611328e+01   6.7539062e+01
   6.6650391e+01   4.4433594e+01   6.7539062e+01
   6.6472656e+01   4.4255859e+01   6.7539062e+01
   6.6294922e+01   4.4433594e+01   6.7539062e+01
   6.6117188e+01   4.5144531e+01   6.7361328e+01
   6.6117188e+01   4.5322266e+01   6.7183594e+01
   6.6117188e+01   4.5144531e+01   6.7005859e+01
   6.6117188e+01   4.4966797e+01   6.7183594e+01
   6.5761719e+01   4.5500000e+01   6.7005859e+01
   6.5939453e+01   4.5500000e+01   6.7183594e+01
   6.5761719e+01   4.5500000e+01   6.7361328e+01
   6.5583984e+01   4.5500000e+01   6.7183594e+01
   6.5761719e+01   4.5322266e+01   6.7539062e+01
   6.5939453e+01   4.5144531e+01   6.7539062e+01
   6.5761719e+01   4.4966797e+01   6.7539062e+01
   6.5583984e+01   4.5144531e+01   6.7539062e+01
   6.6828125e+01   4.5144531e+01   6.7361328e+01
   6.6828125e+01   4.5322266e+01   6.7183594e+01
   6.6828125e+01   4.5144531e+01   6.7005859e+01
   6.6828125e+01   4.4966797e+01   6.7183594e+01
   6.6472656e+01   4.5500000e+01   6.7005859e+01
   6.6650391e+01   4.5500000e+01   6.7183594e+01
   6.6472656e+01   4.5500000e+01   6.7361328e+01
   6.6294922e+01   4.5500000e+01   6.7183594e+01
   6.6472656e+01   4.5322266e+01   6.7539062e+01
   6.6650391e+01   4.5144531e+01   6.7539062e+01
   6.6472656e+01   4.4966797e+01   6.7539062e+01
   6.6294922e+01   4.5144531e+01   6.7539062e+01
   6.6117188e+01   4.4433594e+01   6.8072266e+01
   6.6117188e+01   4.4611328e+01   6.7894531e+01
   6.6117188e+01   4.4433594e+01   6.7716797e+01
   6.6117188e+01   4.4255859e+01   6.7894531e+01
   6.5761719e+01   4.4789062e+01   6.7716797e+01
   6.5939453e+01   4.4789062e+01   6.7894531e+01
   6.5761719e+01   4.4789062e+01   6.8072266e+01
   6.5583984e+01   4.4789062e+01   6.7894531e+01
   6.5761719e+01   4.4611328e+01   6.8250000e+01
   6.5939453e+01   4.4433594e+01   6.8250000e+01
   6.6828125e+01   4.4433594e+01   6.8072266e+01
   6.6828125e+01   4.4611328e+01   6.7894531e+01
   6.6828125e+01   4.4433594e+01   6.7716797e+01
   6.6828125e+01   4.4255859e+01   6.7894531e+01
   6.6472656e+01   4.4789062e+01   6.7716797e+01
   6.6650391e+01   4.4789062e+01   6.7894531e+01
   6.6472656e+01   4.4789062e+01   6.8072266e+01
   6.6294922e+01   4.4789062e+01   6.7894531e+01
   6.6472656e+01   4.4611328e+01   6.8250000e+01
   6.6650391e+01   4.4433594e+01   6.8250000e+01
   6.6472656e+01   4.4255859e+01   6.8250000e+01
   6.6294922e+01   4.4433594e+01   6.8250000e+01
   6.6117188e+01   4.5144531e+01   6.8072266e+01
   6.6117188e+01   4.5322266e+01   6.7894531e+01
   6.6117188e+01   4.5144531e+01   6.7716797e+01
   6.6117188e+01   4.4966797e+01   6.7894531e+01
   6.5761719e+01   4.5500000e+01   6.7716797e+01
   6.5939453e+01   4.5500000e+01   6.7894531e+01
   6.5761719e+01   4.5500000e+01   6.8072266e+01
   6.5583984e+01   4.5500000e+01   6.7894531e+01
   6.5761719e+01   4.5322266e+01   6.8250000e+01
   6.5939453e+01   4.5144531e+01   6.8250000e+01
   6.5761719e+01   4.4966797e+01   6.8250000e+01
   6.6828125e+01   4.5144531e+01   6.8072266e+01
   6.6828125e+01   4.5322266e+01   6.7894531e+01
   6.6828125e+01   4.5144531e+01   6.7716797e+01
   6.6828125e+01   4.4966797e+01   6.7894531e+01
   6.6472656e+01   4.5500000e+01   6.7716797e+01
   6.6650391e+01   4.5500000e+01   6.7894531e+01
   6.6472656e+01   4.5500000e+01   6.8072266e+01
   6.6294922e+01   4.5500000e+01   6.7894531e+01
   6.6472656e+01   4.5322266e+01   6.8250000e+01
   6.6650391e+01   4.5144531e+01   6.8250000e+01
   6.6472656e+01   4.4966797e+01   6.8250000e+01
   6.6294922e+01   4.5144531e+01   6.8250000e+01
   6.7539062e+01   4.4433594e+01   6.7361328e+01
   6.7539062e+01   4.4611328e+01   6.7183594e+01
   6.7539062e+01   4.4433594e+01   6.7005859e+01
   6.7539062e+01   4.4255859e+01   6.7183594e+01
   6.7183594e+01   4.4789062e+01   6.7005859e+01
   6.7361328e+01   4.4789062e+01   6.7183594e+01
   6.7183594e+01   4.4789062e+01   6.7361328e+01
   6.7005859e+01   4.4789062e+01   6.7183594e+01
   6.7183594e+01   4.4611328e+01   6.7539062e+01
   6.7361328e+01   4.4433594e+01   6.7539062e+01
   6.7183594e+01   4.4255859e+01   6.7539062e+01
   6.7005859e+01   4.4433594e+01   6.7539062e+01
   6.8250000e+01   4.4433594e+01   6.7361328e+01
   6.8250000e+01   4.4611328e+01   6.7183594e+01
   6.8250000e+01   4.4433594e+01   6.7005859e+01
   6.8250000e+01   4.4255859e+01   6.7183594e+01
   6.7894531e+01   4.4789062e+01   6.7005859e+01
   6.8072266e+01   4.4789062e+01   6.7183594e+01
   6.7894531e+01   4.4789062e+01   6.7361328e+01
   6.7716797e+01   4.4789062e+01   6.7183594e+01
   6.7894531e+01   4.4611328e+01   6.7539062e+01
   6.8072266e+01   4.4433594e+01   6.7539062e+01
   6.7894531e+01   4.4255859e+01   6.7539062e+01
   6.7716797e+01   4.4433594e+01   6.7539062e+01
   6.7539062e+01   4.5144531e+01   6.7361328e+01
   6.7539062e+01   4.5322266e+01   6.7183594e+01
   6.7539062e+01   4.5144531e+01   6.7005859e+01
   6.7539062e+01   4.4966797e+01   6.7183594e+01
   6.7183594e+01   4.5500000e+01   6.7005859e+01
   6.7361328e+01   4.5500000e+01   6.7183594e+01
   6.7183594e+01   4.5500000e+01   6.7361328e+01
   6.7005859e+01   4.5500000e+01   6.7183594e+01
   6.7183594e+01   4.5322266e+01   6.7539062e+01
   6.7361328e+01   4.5144531e+01   6.7539062e+01
   6.7183594e+01   4.4966797e+01   6.7539062e+01
   6.7005859e+01   4.5144531e+01   6.7539062e+01
   6.8250000e+01   4.5144531e+01   6.7361328e+01
   6.8250000e+01   4.5322266e+01   6.7183594e+01
   6.8250000e+01   4.5144531e+01   6.7005859e+01
   6.8250000e+01   4.4966797e+01   6.7183594e+01
   6.7894531e+01   4.5500000e+01   6.7005859e+01
   6.8072266e+01   4.5500000e+01   6.7183594e+01
   6.7894531e+01   4.5500000e+01   6.7361328e+01
   6.7716797e+01   4.5500000e+01   6.7183594e+01
   6.7894531e+01   4.5322266e+01   6.7539062e+01
   6.8072266e+01   4.5144531e+01   6.7539062e+01
   6.7894531e+01   4.4966797e+01   6.7539062e+01
   6.7716797e+01   4.5144531e+01   6.7539062e+01
   6.7539062e+01   4.4433594e+01   6.8072266e+01
   6.7539062e+01   4.4611328e+01   6.7894531e+01
   6.7539062e+01   4.4433594e+01   6.7716797e+01
   6.7539062e+01   4.4255859e+01   6.7894531e+01
   6.7183594e+01   4.4789062e+01   6.7716797e+01
   6.7361328e+01   4.4789062e+01   6.7894531e+01
   6.7183594e+01   4.4789062e+01   6.8072266e+01
   6.7005859e+01   4.4789062e+01   6.7894531e+01
   6.7183594e+01   4.4611328e+01   6.8250000e+01
   6.7361328e+01   4.4433594e+01   6.8250000e+01
   6.7183594e+01   4.4255859e+01   6.8250000e+01
   6.7005859e+01   4.4433594e+01   6.8250000e+01
   6.8250000e+01   4.4433594e+01   6.8072266e+01
   6.8250000e+01   4.4611328e+01   6.7894531e+01
   6.8250000e+01   4.4433594e+01   6.7716797e+01
   6.8250000e+01   4.4255859e+01   6.7894531e+01
   6.7894531e+01   4.4789062e+01   6.7716797e+01
   6.8072266e+01   4.4789062e+01   6.7894531e+01
   6.7894531e+01   4.4789062e+01   6.8072266e+01
   6.7716797e+01   4.4789062e+01   6.7894531e+01
   6.7894531e+01   4.4611328e+01   6.8250000e+01
   6.8072266e+01   4.4433594e+01   6.8250000e+01
   6.7894531e+01   4.4255859e+01   6.8250000e+01
   6.7716797e+01   4.4433594e+01   6.8250000e+01
   6.7539062e+01   4.5144531e+01   6.8072266e+01
   6.7539062e+01   4.5322266e+01   6.7894531e+01
   6.7539062e+01   4.5144531e+01   6.7716797e+01
   6.7539062e+01   4.4966797e+01   6.7894531e+01
   6.7183594e+01   4.5500000e+01   6.7716797e+01
   6.7361328e+01   4.5500000e+01   6.7894531e+01
   6.7183594e+01   4.5500000e+01   6.8072266e+01
   6.7005859e+01   4.5500000e+01   6.7894531e+01
   6.7183594e+01   4.5322266e+01   6.8250000e+01
   6.7361328e+01   4.5144531e+01   6.8250000e+01
   6.7183594e+01   4.4966797e+01   6.8250000e+01
   6.7005859e+01   4.5144531e+01   6.8250000e+01
   6.8250000e+01   4.5144531e+01   6.8072266e+01
   6.8250000e+01   4.5322266e+01   6.7894531e+01
   6.8250000e+01   4.5144531e+01   6.7716797e+01
   6.8250000e+01   4.4966797e+01   6.7894531e+01
   6.7894531e+01   4.5500000e+01   6.7716797e+01
   6.8072266e+01   4.5500000e+01   6.7894531e+01
   6.7894531e+01   4.5500000e+01   6.8072266e+01
   6.7716797e+01   4.5500000e+01   6.7894531e+01
   6.7894531e+01   4.5322266e+01   6.8250000e+01
   6.8072266e+01   4.5144531e+01   6.8250000e+01
   6.7894531e+01   4.4966797e+01   6.8250000e+01
   6.7716797e+01   4.5144531e+01   6.8250000e+01
   6.8783203e+01   4.2656250e+01   6.4339844e+01
   6.8605469e+01   4.2656250e+01   6.4517578e+01
   6.8427734e+01   4.2656250e+01   6.4339844e+01
   6.9316406e+01   4.2656250e+01   6.4517578e+01
   6.9138672e+01   4.2656250e+01   6.4339844e+01
   6.9316406e+01   4.2478516e+01   6.4695312e+01
   6.8960938e+01   4.2478516e+01   6.5050781e+01
   6.8605469e+01   4.2656250e+01   6.4873047e+01
   6.8783203e+01   4.2656250e+01   6.5050781e+01
   6.8605469e+01   4.2656250e+01   6.5228516e+01
   6.8427734e+01   4.2656250e+01   6.5050781e+01
   6.8605469e+01   4.2478516e+01   6.5406250e+01
   6.9671875e+01   4.2300781e+01   6.5228516e+01
   6.9671875e+01   4.2478516e+01   6.5050781e+01
   6.9316406e+01   4.2656250e+01   6.4873047e+01
   6.9494141e+01   4.2656250e+01   6.5050781e+01
   6.9316406e+01   4.2656250e+01   6.5228516e+01
   6.9138672e+01   4.2656250e+01   6.5050781e+01
   6.9316406e+01   4.2478516e+01   6.5406250e+01
   6.9494141e+01   4.2300781e+01   6.5406250e+01
   6.9138672e+01   4.2300781e+01   6.5406250e+01
   7.0027344e+01   4.2478516e+01   6.5406250e+01
   6.9849609e+01   4.2300781e+01   6.5406250e+01
   6.8427734e+01   4.3011719e+01   6.3273438e+01
   6.8605469e+01   4.3367188e+01   6.3806641e+01
   6.8427734e+01   4.3367188e+01   6.3628906e+01
   6.8605469e+01   4.3189453e+01   6.3984375e+01
   6.8783203e+01   4.3011719e+01   6.3984375e+01
   6.8605469e+01   4.2833984e+01   6.3984375e+01
   6.8427734e+01   4.3011719e+01   6.3984375e+01
   6.8605469e+01   4.4078125e+01   6.3806641e+01
   6.8427734e+01   4.4078125e+01   6.3628906e+01
   6.8605469e+01   4.3900391e+01   6.3984375e+01
   6.8783203e+01   4.3722656e+01   6.3984375e+01
   6.8605469e+01   4.3544922e+01   6.3984375e+01
   6.8427734e+01   4.3722656e+01   6.3984375e+01
   6.8338867e+01   4.4522461e+01   6.3717773e+01
   6.8338867e+01   4.4344727e+01   6.3540039e+01
   6.8605469e+01   4.4789062e+01   6.3806641e+01
   6.8427734e+01   4.4789062e+01   6.3628906e+01
   6.8605469e+01   4.4611328e+01   6.3984375e+01
   6.8783203e+01   4.4433594e+01   6.3984375e+01
   6.8605469e+01   4.4255859e+01   6.3984375e+01
   6.8427734e+01   4.4433594e+01   6.3984375e+01
   6.8338867e+01   4.5233398e+01   6.3540039e+01
   6.8338867e+01   4.5055664e+01   6.3717773e+01
   6.8427734e+01   4.5500000e+01   6.3628906e+01
   6.8605469e+01   4.5322266e+01   6.3984375e+01
   6.8605469e+01   4.4966797e+01   6.3984375e+01
   6.8427734e+01   4.5144531e+01   6.3984375e+01
   6.8960938e+01   4.3011719e+01   6.4517578e+01
   6.8960938e+01   4.3189453e+01   6.4339844e+01
   6.8960938e+01   4.3011719e+01   6.4162109e+01
   6.8960938e+01   4.2833984e+01   6.4339844e+01
   6.8605469e+01   4.3367188e+01   6.4162109e+01
   6.8783203e+01   4.3367188e+01   6.4339844e+01
   6.8605469e+01   4.3367188e+01   6.4517578e+01
   6.8427734e+01   4.3367188e+01   6.4339844e+01
   6.8605469e+01   4.3189453e+01   6.4695312e+01
   6.8783203e+01   4.3011719e+01   6.4695312e+01
   6.8605469e+01   4.2833984e+01   6.4695312e+01
   6.8427734e+01   4.3011719e+01   6.4695312e+01
   6.9316406e+01   4.3367188e+01   6.4517578e+01
   6.9138672e+01   4.3367188e+01   6.4339844e+01
   6.9316406e+01   4.3189453e+01   6.4695312e+01
   6.9494141e+01   4.3011719e+01   6.4695312e+01
   6.9316406e+01   4.2833984e+01   6.4695312e+01
   6.9138672e+01   4.3011719e+01   6.4695312e+01
   6.8960938e+01   4.3722656e+01   6.4517578e+01
   6.8960938e+01   4.3900391e+01   6.4339844e+01
   6.8960938e+01   4.3722656e+01   6.4162109e+01
   6.8960938e+01   4.3544922e+01   6.4339844e+01
   6.8605469e+01   4.4078125e+01   6.4162109e+01
   6.8783203e+01   4.4078125e+01   6.4339844e+01
   6.8605469e+01   4.4078125e+01   6.4517578e+01
   6.8427734e+01   4.4078125e+01   6.4339844e+01
   6.8605469e+01   4.3900391e+01   6.4695312e+01
   6.8783203e+01   4.3722656e+01   6.4695312e+01
   6.8605469e+01   4.3544922e+01   6.4695312e+01
   6.8427734e+01   4.3722656e+01   6.4695312e+01
   6.9316406e+01   4.3900391e+01   6.4695312e+01
   6.9316406e+01   4.3544922e+01   6.4695312e+01
   6.9138672e+01   4.3722656e+01   6.4695312e+01
   6.8960938e+01   4.3011719e+01   6.5228516e+01
   6.8960938e+01   4.3189453e+01   6.5050781e+01
   6.8960938e+01   4.3011719e+01   6.4873047e+01
   6.8960938e+01   4.2833984e+01   6.5050781e+01
   6.8605469e+01   4.3367188e+01   6.4873047e+01
   6.8783203e+01   4.3367188e+01   6.5050781e+01
   6.8605469e+01   4.3367188e+01   6.5228516e+01
   6.8427734e+01   4.3367188e+01   6.5050781e+01
   6.8605469e+01   4.3189453e+01   6.5406250e+01
   6.8783203e+01   4.3011719e+01   6.5406250e+01
   6.8605469e+01   4.2833984e+01   6.5406250e+01
   6.8427734e+01   4.3011719e+01   6.5406250e+01
   6.9671875e+01   4.3011719e+01   6.5228516e+01
   6.9671875e+01   4.3189453e+01   6.5050781e+01
   6.9671875e+01   4.2833984e+01   6.5050781e+01
   6.9316406e+01   4.3367188e+01   6.4873047e+01
   6.9494141e+01   4.3367188e+01   6.5050781e+01
   6.9316406e+01   4.3367188e+01   6.5228516e+01
   6.9138672e+01   4.3367188e+01   6.5050781e+01
   6.9316406e+01   4.3189453e+01   6.5406250e+01
   6.9494141e+01   4.3011719e+01   6.5406250e+01
   6.9316406e+01   4.2833984e+01   6.5406250e+01
   6.9138672e+01   4.3011719e+01   6.5406250e+01
   6.8960938e+01   4.3722656e+01   6.5228516e+01
   6.8960938e+01   4.3900391e+01   6.5050781e+01
   6.8960938e+01   4.3722656e+01   6.4873047e+01
   6.8960938e+01   4.3544922e+01   6.5050781e+01
   6.8605469e+01   4.4078125e+01   6.4873047e+01
   6.8783203e+01   4.4078125e+01   6.5050781e+01
   6.8605469e+01   4.4078125e+01   6.5228516e+01
   6.8427734e+01   4.4078125e+01   6.5050781e+01
   6.8605469e+01   4.3900391e+01   6.5406250e+01
   6.8783203e+01   4.3722656e+01   6.5406250e+01
   6.8605469e+01   4.3544922e+01   6.5406250e+01
   6.8427734e+01   4.3722656e+01   6.5406250e+01
   6.9671875e+01   4.3722656e+01   6.5228516e+01
   6.9671875e+01   4.3900391e+01   6.5050781e+01
   6.9671875e+01   4.3544922e+01   6.5050781e+01
   6.9316406e+01   4.4078125e+01   6.4873047e+01
   6.9494141e+01   4.4078125e+01   6.5050781e+01
   6.9316406e+01   4.4078125e+01   6.5228516e+01
   6.9138672e+01   4.4078125e+01   6.5050781e+01
   6.9316406e+01   4.3900391e+01   6.5406250e+01
   6.9494141e+01   4.3722656e+01   6.5406250e+01
   6.9316406e+01   4.3544922e+01   6.5406250e+01
   6.9138672e+01   4.3722656e+01   6.5406250e+01
   7.0027344e+01   4.3189453e+01   6.5406250e+01
   7.0027344e+01   4.2833984e+01   6.5406250e+01
   6.9849609e+01   4.3011719e+01   6.5406250e+01
   6.9849609e+01   4.3722656e+01   6.5406250e+01
   6.8960938e+01   4.4433594e+01   6.4517578e+01
   6.8960938e+01   4.4611328e+01   6.4339844e+01
   6.8960938e+01   4.4255859e+01   6.4339844e+01
   6.8605469e+01   4.4789062e+01   6.4162109e+01
   6.8783203e+01   4.4789062e+01   6.4339844e+01
   6.8605469e+01   4.4789062e+01   6.4517578e+01
   6.8427734e+01   4.4789062e+01   6.4339844e+01
   6.8605469e+01   4.4611328e+01   6.4695312e+01
   6.8783203e+01   4.4433594e+01   6.4695312e+01
   6.8605469e+01   4.4255859e+01   6.4695312e+01
   6.8427734e+01   4.4433594e+01   6.4695312e+01
   6.9316406e+01   4.4611328e+01   6.4695312e+01
   6.9316406e+01   4.4255859e+01   6.4695312e+01
   6.9138672e+01   4.4433594e+01   6.4695312e+01
   6.8960938e+01   4.5144531e+01   6.4517578e+01
   6.8960938e+01   4.5322266e+01   6.4339844e+01
   6.8960938e+01   4.4966797e+01   6.4339844e+01
   6.8605469e+01   4.5500000e+01   6.4162109e+01
   6.8783203e+01   4.5500000e+01   6.4339844e+01
   6.8605469e+01   4.5500000e+01   6.4517578e+01
   6.8427734e+01   4.5500000e+01   6.4339844e+01
   6.8605469e+01   4.5322266e+01   6.4695312e+01
   6.8783203e+01   4.5144531e+01   6.4695312e+01
   6.8605469e+01   4.4966797e+01   6.4695312e+01
   6.8427734e+01   4.5144531e+01   6.4695312e+01
   6.9138672e+01   4.5144531e+01   6.4695312e+01
   6.8960938e+01   4.4433594e+01   6.5228516e+01
   6.8960938e+01   4.4611328e+01   6.5050781e+01
   6.8960938e+01   4.4433594e+01   6.4873047e+01
   6.8960938e+01   4.4255859e+01   6.5050781e+01
   6.8605469e+01   4.4789062e+01   6.4873047e+01
   6.8783203e+01   4.4789062e+01   6.5050781e+01
   6.8605469e+01   4.4789062e+01   6.5228516e+01
   6.8427734e+01   4.4789062e+01   6.5050781e+01
   6.8605469e+01   4.4611328e+01   6.5406250e+01
   6.8783203e+01   4.4433594e+01   6.5406250e+01
   6.8605469e+01   4.4255859e+01   6.5406250e+01
   6.8427734e+01   4.4433594e+01   6.5406250e+01
   6.9671875e+01   4.4433594e+01   6.5228516e+01
   6.9316406e+01   4.4789062e+01   6.4873047e+01
   6.9494141e+01   4.4789062e+01   6.5050781e+01
   6.9316406e+01   4.4789062e+01   6.5228516e+01
   6.9138672e+01   4.4789062e+01   6.5050781e+01
   6.9316406e+01   4.4611328e+01   6.5406250e+01
   6.9494141e+01   4.4433594e+01   6.5406250e+01
   6.9316406e+01   4.4255859e+01   6.5406250e+01
   6.9138672e+01   4.4433594e+01   6.5406250e+01
   6.8960938e+01   4.5144531e+01   6.5228516e+01
   6.8960938e+01   4.5322266e+01   6.5050781e+01
   6.8960938e+01   4.5144531e+01   6.4873047e+01
   6.8960938e+01   4.4966797e+01   6.5050781e+01
   6.8605469e+01   4.5500000e+01   6.4873047e+01
   6.8783203e+01   4.5500000e+01   6.5050781e+01
   6.8605469e+01   4.5500000e+01   6.5228516e+01
   6.8427734e+01   4.5500000e+01   6.5050781e+01
   6.8605469e+01   4.5322266e+01   6.5406250e+01
   6.8783203e+01   4.5144531e+01   6.5406250e+01
   6.8605469e+01   4.4966797e+01   6.5406250e+01
   6.8427734e+01   4.5144531e+01   6.5406250e+01
   6.9671875e+01   4.5144531e+01   6.5228516e+01
   6.9316406e+01   4.5500000e+01   6.4873047e+01
   6.9494141e+01   4.5500000e+01   6.5050781e+01
   6.9316406e+01   4.5500000e+01   6.5228516e+01
   6.9138672e+01   4.5500000e+01   6.5050781e+01
   6.9316406e+01   4.5322266e+01   6.5406250e+01
   6.9494141e+01   4.5144531e+01   6.5406250e+01
   6.9316406e+01   4.4966797e+01   6.5406250e+01
   6.9138672e+01   4.5144531e+01   6.5406250e+01
   6.9849609e+01   4.4433594e+01   6.5406250e+01
   6.8960938e+01   4.2300781e+01   6.5939453e+01
   6.8960938e+01   4.2478516e+01   6.5761719e+01
   6.8960938e+01   4.2300781e+01   6.5583984e+01
   6.8605469e+01   4.2656250e+01   6.5583984e+01
   6.8783203e+01   4.2656250e+01   6.5761719e+01
   6.8605469e+01   4.2656250e+01   6.5939453e+01
   6.8427734e+01   4.2656250e+01   6.5761719e+01
   6.8605469e+01   4.2478516e+01   6.6117188e+01
   6.8783203e+01   4.2300781e+01   6.6117188e+01
   6.8427734e+01   4.2300781e+01   6.6117188e+01
   6.9671875e+01   4.2300781e+01   6.5939453e+01
   6.9671875e+01   4.2478516e+01   6.5761719e+01
   6.9671875e+01   4.2300781e+01   6.5583984e+01
   6.9316406e+01   4.2656250e+01   6.5583984e+01
   6.9494141e+01   4.2656250e+01   6.5761719e+01
   6.9316406e+01   4.2656250e+01   6.5939453e+01
   6.9138672e+01   4.2656250e+01   6.5761719e+01
   6.9316406e+01   4.2478516e+01   6.6117188e+01
   6.9494141e+01   4.2300781e+01   6.6117188e+01
   6.9316406e+01   4.2123047e+01   6.6117188e+01
   6.9138672e+01   4.2300781e+01   6.6117188e+01
   6.8960938e+01   4.2300781e+01   6.6650391e+01
   6.8960938e+01   4.2478516e+01   6.6472656e+01
   6.8960938e+01   4.2300781e+01   6.6294922e+01
   6.8960938e+01   4.2123047e+01   6.6472656e+01
   6.8605469e+01   4.2656250e+01   6.6294922e+01
   6.8783203e+01   4.2656250e+01   6.6472656e+01
   6.8605469e+01   4.2656250e+01   6.6650391e+01
   6.8427734e+01   4.2656250e+01   6.6472656e+01
   6.8605469e+01   4.2478516e+01   6.6828125e+01
   6.8783203e+01   4.2300781e+01   6.6828125e+01
   6.8605469e+01   4.2123047e+01   6.6828125e+01
   6.8427734e+01   4.2300781e+01   6.6828125e+01
   6.9556377e+01   4.2334955e+01   6.6601748e+01
   6.9647068e+01   4.2421999e+01   6.6514705e+01
   6.9673225e+01   4.2368701e+01   6.6296271e+01
   6.9617643e+01   4.2068814e+01   6.6307717e+01
   6.9316406e+01   4.2656250e+01   6.6294922e+01
   6.9481717e+01   4.2655315e+01   6.6459123e+01
   6.9303982e+01   4.2655315e+01   6.6636857e+01
   6.9138672e+01   4.2656250e+01   6.6472656e+01
   6.9282762e+01   4.2498801e+01   6.6920740e+01
   6.9446607e+01   4.2334955e+01   6.6729117e+01
   6.9247783e+01   4.2035774e+01   6.6848369e+01
   6.9105158e+01   4.2267268e+01   6.6921980e+01
   7.0182826e+01   4.2321729e+01   6.5849236e+01
   7.0273518e+01   4.2408772e+01   6.5762193e+01
   7.0229326e+01   4.2179563e+01   6.5719670e+01
   7.0027344e+01   4.2656250e+01   6.5583984e+01
   6.9849609e+01   4.2656250e+01   6.5761719e+01
   6.9944889e+01   4.2511801e+01   6.6172770e+01
   7.0114861e+01   4.2321729e+01   6.5938104e+01
   6.9795377e+01   4.2246549e+01   6.6151822e+01
