   7.0738281e+01   4.5677734e+01   6.5406250e+01
   7.0560547e+01   4.5855469e+01   6.5406250e+01
   7.0382812e+01   4.6566406e+01   6.5228516e+01
   7.0382812e+01   4.6744141e+01   6.5050781e+01
   7.0382812e+01   4.6566406e+01   6.4873047e+01
   7.0382812e+01   4.6388672e+01   6.5050781e+01
   7.0027344e+01   4.6921875e+01   6.4873047e+01
   7.0205078e+01   4.6921875e+01   6.5050781e+01
   7.0027344e+01   4.6921875e+01   6.5228516e+01
   6.9849609e+01   4.6921875e+01   6.5050781e+01
   7.0027344e+01   4.6744141e+01   6.5406250e+01
   7.0205078e+01   4.6566406e+01   6.5406250e+01
   7.0027344e+01   4.6388672e+01   6.5406250e+01
   6.9849609e+01   4.6566406e+01   6.5406250e+01
   7.1093750e+01   4.6566406e+01   6.5228516e+01
   7.1093750e+01   4.6744141e+01   6.5050781e+01
   7.1093750e+01   4.6566406e+01   6.4873047e+01
   7.1093750e+01   4.6388672e+01   6.5050781e+01
   7.0738281e+01   4.6921875e+01   6.4873047e+01
   7.0916016e+01   4.6921875e+01   6.5050781e+01
   7.0738281e+01   4.6921875e+01   6.5228516e+01
   7.0560547e+01   4.6921875e+01   6.5050781e+01
   7.0738281e+01   4.6744141e+01   6.5406250e+01
   7.0916016e+01   4.6566406e+01   6.5406250e+01
   7.0738281e+01   4.6388672e+01   6.5406250e+01
   7.0560547e+01   4.6566406e+01   6.5406250e+01
   6.8960938e+01   4.7277344e+01   6.4517578e+01
   6.8960938e+01   4.7455078e+01   6.4339844e+01
   6.8960938e+01   4.7099609e+01   6.4339844e+01
   6.8783203e+01   4.7277344e+01   6.4695312e+01
   6.8605469e+01   4.7099609e+01   6.4695312e+01
   6.9671875e+01   4.7277344e+01   6.4517578e+01
   6.9671875e+01   4.7455078e+01   6.4339844e+01
   6.9671875e+01   4.7277344e+01   6.4162109e+01
   6.9671875e+01   4.7099609e+01   6.4339844e+01
   6.9316406e+01   4.7632812e+01   6.4162109e+01
   6.9494141e+01   4.7632812e+01   6.4339844e+01
   6.9316406e+01   4.7632812e+01   6.4517578e+01
   6.9138672e+01   4.7632812e+01   6.4339844e+01
   6.9405273e+01   4.7366211e+01   6.4073242e+01
   6.9227539e+01   4.7188477e+01   6.4073242e+01
   6.9316406e+01   4.7455078e+01   6.4695312e+01
   6.9494141e+01   4.7277344e+01   6.4695312e+01
   6.9316406e+01   4.7099609e+01   6.4695312e+01
   6.9138672e+01   4.7277344e+01   6.4695312e+01
   6.9671875e+01   4.7988281e+01   6.4517578e+01
   6.9671875e+01   4.8166016e+01   6.4339844e+01
   6.9671875e+01   4.7988281e+01   6.4162109e+01
   6.9671875e+01   4.7810547e+01   6.4339844e+01
   6.9494141e+01   4.8343750e+01   6.4339844e+01
   6.9316406e+01   4.8343750e+01   6.4517578e+01
   6.9316406e+01   4.8166016e+01   6.4695312e+01
   6.9494141e+01   4.7988281e+01   6.4695312e+01
   6.9316406e+01   4.7810547e+01   6.4695312e+01
   6.9138672e+01   4.7988281e+01   6.4695312e+01
   6.8338867e+01   4.7366211e+01   6.5139648e+01
   6.8338867e+01   4.7188477e+01   6.4961914e+01
   6.8960938e+01   4.7277344e+01   6.5228516e+01
   6.8960938e+01   4.7455078e+01   6.5050781e+01
   6.8960938e+01   4.7277344e+01   6.4873047e+01
   6.8960938e+01   4.7099609e+01   6.5050781e+01
   6.8605469e+01   4.7632812e+01   6.4873047e+01
   6.8783203e+01   4.7632812e+01   6.5050781e+01
   6.8605469e+01   4.7632812e+01   6.5228516e+01
   6.8427734e+01   4.7632812e+01   6.5050781e+01
   6.8605469e+01   4.7455078e+01   6.5406250e+01
   6.8783203e+01   4.7277344e+01   6.5406250e+01
   6.8605469e+01   4.7099609e+01   6.5406250e+01
   6.8427734e+01   4.7277344e+01   6.5406250e+01
   6.9671875e+01   4.7277344e+01   6.5228516e+01
   6.9671875e+01   4.7455078e+01   6.5050781e+01
   6.9671875e+01   4.7277344e+01   6.4873047e+01
   6.9671875e+01   4.7099609e+01   6.5050781e+01
   6.9316406e+01   4.7632812e+01   6.4873047e+01
   6.9494141e+01   4.7632812e+01   6.5050781e+01
   6.9316406e+01   4.7632812e+01   6.5228516e+01
   6.9138672e+01   4.7632812e+01   6.5050781e+01
   6.9316406e+01   4.7455078e+01   6.5406250e+01
   6.9494141e+01   4.7277344e+01   6.5406250e+01
   6.9316406e+01   4.7099609e+01   6.5406250e+01
   6.9138672e+01   4.7277344e+01   6.5406250e+01
   6.8960938e+01   4.7988281e+01   6.5228516e+01
   6.8960938e+01   4.8166016e+01   6.5050781e+01
   6.8960938e+01   4.7988281e+01   6.4873047e+01
   6.8960938e+01   4.7810547e+01   6.5050781e+01
   6.8605469e+01   4.8166016e+01   6.5406250e+01
   6.8783203e+01   4.7988281e+01   6.5406250e+01
   6.8605469e+01   4.7810547e+01   6.5406250e+01
   6.8427734e+01   4.7988281e+01   6.5406250e+01
   6.9671875e+01   4.7988281e+01   6.5228516e+01
   6.9671875e+01   4.8166016e+01   6.5050781e+01
   6.9671875e+01   4.7988281e+01   6.4873047e+01
   6.9671875e+01   4.7810547e+01   6.5050781e+01
   6.9316406e+01   4.8343750e+01   6.4873047e+01
   6.9494141e+01   4.8343750e+01   6.5050781e+01
   6.9316406e+01   4.8343750e+01   6.5228516e+01
   6.9138672e+01   4.8343750e+01   6.5050781e+01
   6.9316406e+01   4.8166016e+01   6.5406250e+01
   6.9494141e+01   4.7988281e+01   6.5406250e+01
   6.9316406e+01   4.7810547e+01   6.5406250e+01
   6.9138672e+01   4.7988281e+01   6.5406250e+01
   7.0382812e+01   4.7277344e+01   6.4517578e+01
   7.0382812e+01   4.7455078e+01   6.4339844e+01
   7.0382812e+01   4.7277344e+01   6.4162109e+01
   7.0382812e+01   4.7099609e+01   6.4339844e+01
   7.0027344e+01   4.7632812e+01   6.4162109e+01
   7.0205078e+01   4.7632812e+01   6.4339844e+01
   7.0027344e+01   4.7632812e+01   6.4517578e+01
   6.9849609e+01   4.7632812e+01   6.4339844e+01
   7.0027344e+01   4.7455078e+01   6.4695312e+01
   7.0205078e+01   4.7277344e+01   6.4695312e+01
   7.0027344e+01   4.7099609e+01   6.4695312e+01
   6.9849609e+01   4.7277344e+01   6.4695312e+01
   7.1093750e+01   4.7277344e+01   6.4517578e+01
   7.1093750e+01   4.7099609e+01   6.4339844e+01
   7.0738281e+01   4.7632812e+01   6.4162109e+01
   7.0916016e+01   4.7632812e+01   6.4339844e+01
   7.0738281e+01   4.7632812e+01   6.4517578e+01
   7.0560547e+01   4.7632812e+01   6.4339844e+01
   7.0738281e+01   4.7455078e+01   6.4695312e+01
   7.0916016e+01   4.7277344e+01   6.4695312e+01
   7.0738281e+01   4.7099609e+01   6.4695312e+01
   7.0560547e+01   4.7277344e+01   6.4695312e+01
   7.0382812e+01   4.7988281e+01   6.4517578e+01
   7.0382812e+01   4.8166016e+01   6.4339844e+01
   7.0382812e+01   4.7988281e+01   6.4162109e+01
   7.0382812e+01   4.7810547e+01   6.4339844e+01
   7.0027344e+01   4.8343750e+01   6.4162109e+01
   7.0205078e+01   4.8343750e+01   6.4339844e+01
   7.0027344e+01   4.8343750e+01   6.4517578e+01
   6.9849609e+01   4.8343750e+01   6.4339844e+01
   7.0027344e+01   4.8166016e+01   6.4695312e+01
   7.0205078e+01   4.7988281e+01   6.4695312e+01
   7.0027344e+01   4.7810547e+01   6.4695312e+01
   6.9849609e+01   4.7988281e+01   6.4695312e+01
   7.0738281e+01   4.8343750e+01   6.4517578e+01
   7.0560547e+01   4.8343750e+01   6.4339844e+01
   7.0738281e+01   4.8166016e+01   6.4695312e+01
   7.0916016e+01   4.7988281e+01   6.4695312e+01
   7.0738281e+01   4.7810547e+01   6.4695312e+01
   7.0560547e+01   4.7988281e+01   6.4695312e+01
   7.0382812e+01   4.7277344e+01   6.5228516e+01
   7.0382812e+01   4.7455078e+01   6.5050781e+01
   7.0382812e+01   4.7277344e+01   6.4873047e+01
   7.0382812e+01   4.7099609e+01   6.5050781e+01
   7.0027344e+01   4.7632812e+01   6.4873047e+01
   7.0205078e+01   4.7632812e+01   6.5050781e+01
   7.0027344e+01   4.7632812e+01   6.5228516e+01
   6.9849609e+01   4.7632812e+01   6.5050781e+01
   7.0027344e+01   4.7455078e+01   6.5406250e+01
   7.0205078e+01   4.7277344e+01   6.5406250e+01
   7.0027344e+01   4.7099609e+01   6.5406250e+01
   6.9849609e+01   4.7277344e+01   6.5406250e+01
   7.1093750e+01   4.7277344e+01   6.5228516e+01
   7.1093750e+01   4.7455078e+01   6.5050781e+01
   7.1093750e+01   4.7277344e+01   6.4873047e+01
   7.1093750e+01   4.7099609e+01   6.5050781e+01
   7.0738281e+01   4.7632812e+01   6.4873047e+01
   7.0916016e+01   4.7632812e+01   6.5050781e+01
   7.0738281e+01   4.7632812e+01   6.5228516e+01
   7.0560547e+01   4.7632812e+01   6.5050781e+01
   7.0738281e+01   4.7455078e+01   6.5406250e+01
   7.0916016e+01   4.7277344e+01   6.5406250e+01
   7.0738281e+01   4.7099609e+01   6.5406250e+01
   7.0560547e+01   4.7277344e+01   6.5406250e+01
   7.0382812e+01   4.7988281e+01   6.5228516e+01
   7.0382812e+01   4.8166016e+01   6.5050781e+01
   7.0382812e+01   4.7988281e+01   6.4873047e+01
   7.0382812e+01   4.7810547e+01   6.5050781e+01
   7.0027344e+01   4.8343750e+01   6.4873047e+01
   7.0205078e+01   4.8343750e+01   6.5050781e+01
   7.0027344e+01   4.8343750e+01   6.5228516e+01
   6.9849609e+01   4.8343750e+01   6.5050781e+01
   7.0027344e+01   4.8166016e+01   6.5406250e+01
   7.0205078e+01   4.7988281e+01   6.5406250e+01
   7.0027344e+01   4.7810547e+01   6.5406250e+01
   6.9849609e+01   4.7988281e+01   6.5406250e+01
   7.1093750e+01   4.7988281e+01   6.5228516e+01
   7.1093750e+01   4.8166016e+01   6.5050781e+01
   7.1093750e+01   4.7988281e+01   6.4873047e+01
   7.1093750e+01   4.7810547e+01   6.5050781e+01
   7.0738281e+01   4.8343750e+01   6.4873047e+01
   7.0916016e+01   4.8343750e+01   6.5050781e+01
   7.0738281e+01   4.8343750e+01   6.5228516e+01
   7.0560547e+01   4.8343750e+01   6.5050781e+01
   7.0738281e+01   4.8166016e+01   6.5406250e+01
   7.0916016e+01   4.7988281e+01   6.5406250e+01
   7.0738281e+01   4.7810547e+01   6.5406250e+01
   7.0560547e+01   4.7988281e+01   6.5406250e+01
   7.1449219e+01   4.6210938e+01   6.4517578e+01
   7.1271484e+01   4.6210938e+01   6.4339844e+01
   7.1449219e+01   4.6033203e+01   6.4695312e+01
   7.1626953e+01   4.5855469e+01   6.4695312e+01
   7.1449219e+01   4.5677734e+01   6.4695312e+01
   7.1271484e+01   4.5855469e+01   6.4695312e+01
   7.1449219e+01   4.6744141e+01   6.4695312e+01
   7.1449219e+01   4.6388672e+01   6.4695312e+01
   7.1271484e+01   4.6566406e+01   6.4695312e+01
   7.1804688e+01   4.5855469e+01   6.5228516e+01
   7.1804688e+01   4.6033203e+01   6.5050781e+01
   7.1804688e+01   4.5855469e+01   6.4873047e+01
   7.1804688e+01   4.5677734e+01   6.5050781e+01
   7.1449219e+01   4.6210938e+01   6.4873047e+01
   7.1626953e+01   4.6210938e+01   6.5050781e+01
   7.1449219e+01   4.6210938e+01   6.5228516e+01
   7.1271484e+01   4.6210938e+01   6.5050781e+01
   7.1449219e+01   4.6033203e+01   6.5406250e+01
   7.1626953e+01   4.5855469e+01   6.5406250e+01
   7.1449219e+01   4.5677734e+01   6.5406250e+01
   7.1271484e+01   4.5855469e+01   6.5406250e+01
   7.2148291e+01   4.6210003e+01   6.5214982e+01
   7.1982422e+01   4.6210938e+01   6.5050781e+01
   7.2135867e+01   4.6031334e+01   6.5378982e+01
   7.2279619e+01   4.5887582e+01   6.5344999e+01
   7.2223520e+01   4.5710782e+01   6.5358532e+01
   7.1969998e+01   4.5854534e+01   6.5392516e+01
   7.1804688e+01   4.6566406e+01   6.5228516e+01
   7.1804688e+01   4.6744141e+01   6.5050781e+01
   7.1804688e+01   4.6388672e+01   6.5050781e+01
   7.1449219e+01   4.6921875e+01   6.4873047e+01
   7.1626953e+01   4.6921875e+01   6.5050781e+01
   7.1449219e+01   4.6921875e+01   6.5228516e+01
   7.1271484e+01   4.6921875e+01   6.5050781e+01
   7.1449219e+01   4.6744141e+01   6.5406250e+01
   7.1626953e+01   4.6566406e+01   6.5406250e+01
   7.1449219e+01   4.6388672e+01   6.5406250e+01
   7.1271484e+01   4.6566406e+01   6.5406250e+01
   7.2160156e+01   4.6744141e+01   6.5406250e+01
   7.2148291e+01   4.6387737e+01   6.5392717e+01
   7.1982422e+01   4.6566406e+01   6.5406250e+01
   7.1449219e+01   4.7099609e+01   6.4695312e+01
   7.1271484e+01   4.7277344e+01   6.4695312e+01
   7.1804688e+01   4.7277344e+01   6.5228516e+01
   7.1804688e+01   4.7099609e+01   6.5050781e+01
   7.1449219e+01   4.7632812e+01   6.4873047e+01
   7.1626953e+01   4.7632812e+01   6.5050781e+01
   7.1449219e+01   4.7632812e+01   6.5228516e+01
   7.1271484e+01   4.7632812e+01   6.5050781e+01
   7.1449219e+01   4.7455078e+01   6.5406250e+01
   7.1626953e+01   4.7277344e+01   6.5406250e+01
   7.1449219e+01   4.7099609e+01   6.5406250e+01
   7.1271484e+01   4.7277344e+01   6.5406250e+01
   7.2160156e+01   4.7099609e+01   6.5406250e+01
   7.1982422e+01   4.7277344e+01   6.5406250e+01
   7.1449219e+01   4.8343750e+01   6.5228516e+01
   7.1271484e+01   4.8343750e+01   6.5050781e+01
   7.1449219e+01   4.8166016e+01   6.5406250e+01
   7.1626953e+01   4.7988281e+01   6.5406250e+01
   7.1449219e+01   4.7810547e+01   6.5406250e+01
   7.1271484e+01   4.7988281e+01   6.5406250e+01
   7.0205078e+01   4.8699219e+01   6.3984375e+01
   7.0027344e+01   4.8521484e+01   6.3984375e+01
   6.9671875e+01   4.8699219e+01   6.4517578e+01
   6.9671875e+01   4.8521484e+01   6.4339844e+01
   6.9494141e+01   4.8699219e+01   6.4695312e+01
   6.9316406e+01   4.8521484e+01   6.4695312e+01
   6.8960938e+01   4.8699219e+01   6.5228516e+01
   6.8960938e+01   4.8521484e+01   6.5050781e+01
   6.8783203e+01   4.8699219e+01   6.5406250e+01
   6.9671875e+01   4.8699219e+01   6.5228516e+01
   6.9671875e+01   4.8876953e+01   6.5050781e+01
   6.9671875e+01   4.8699219e+01   6.4873047e+01
   6.9671875e+01   4.8521484e+01   6.5050781e+01
   6.9316406e+01   4.8876953e+01   6.5406250e+01
   6.9494141e+01   4.8699219e+01   6.5406250e+01
   6.9316406e+01   4.8521484e+01   6.5406250e+01
   6.9138672e+01   4.8699219e+01   6.5406250e+01
   7.0382812e+01   4.8699219e+01   6.4517578e+01
   7.0382812e+01   4.8876953e+01   6.4339844e+01
   7.0382812e+01   4.8699219e+01   6.4162109e+01
   7.0382812e+01   4.8521484e+01   6.4339844e+01
   7.0205078e+01   4.9054688e+01   6.4339844e+01
   7.0027344e+01   4.9054688e+01   6.4517578e+01
   7.0027344e+01   4.8876953e+01   6.4695312e+01
   7.0205078e+01   4.8699219e+01   6.4695312e+01
   7.0027344e+01   4.8521484e+01   6.4695312e+01
   6.9849609e+01   4.8699219e+01   6.4695312e+01
   7.0560547e+01   4.9054688e+01   6.4339844e+01
   7.0738281e+01   4.8876953e+01   6.4695312e+01
   7.0916016e+01   4.8699219e+01   6.4695312e+01
   7.0738281e+01   4.8521484e+01   6.4695312e+01
   7.0560547e+01   4.8699219e+01   6.4695312e+01
   7.0382812e+01   4.8699219e+01   6.5228516e+01
   7.0382812e+01   4.8699219e+01   6.4873047e+01
   7.0382812e+01   4.8521484e+01   6.5050781e+01
   7.0205078e+01   4.8699219e+01   6.5406250e+01
   7.0027344e+01   4.8521484e+01   6.5406250e+01
   6.9849609e+01   4.8699219e+01   6.5406250e+01
   7.1093750e+01   4.8699219e+01   6.4873047e+01
   7.1093750e+01   4.8521484e+01   6.5050781e+01
   7.0738281e+01   4.8521484e+01   6.5406250e+01
   6.8960938e+01   4.5855469e+01   6.5939453e+01
   6.8960938e+01   4.6033203e+01   6.5761719e+01
   6.8960938e+01   4.5855469e+01   6.5583984e+01
   6.8960938e+01   4.5677734e+01   6.5761719e+01
   6.8605469e+01   4.6210938e+01   6.5583984e+01
   6.8783203e+01   4.6210938e+01   6.5761719e+01
   6.8605469e+01   4.6210938e+01   6.5939453e+01
   6.8427734e+01   4.6210938e+01   6.5761719e+01
   6.8605469e+01   4.6033203e+01   6.6117188e+01
   6.8783203e+01   4.5855469e+01   6.6117188e+01
   6.8605469e+01   4.5677734e+01   6.6117188e+01
   6.8427734e+01   4.5855469e+01   6.6117188e+01
   6.9671875e+01   4.5855469e+01   6.5939453e+01
   6.9671875e+01   4.6033203e+01   6.5761719e+01
   6.9671875e+01   4.5855469e+01   6.5583984e+01
   6.9671875e+01   4.5677734e+01   6.5761719e+01
   6.9316406e+01   4.6210938e+01   6.5583984e+01
   6.9494141e+01   4.6210938e+01   6.5761719e+01
   6.9316406e+01   4.6210938e+01   6.5939453e+01
   6.9138672e+01   4.6210938e+01   6.5761719e+01
   6.9316406e+01   4.6033203e+01   6.6117188e+01
   6.9494141e+01   4.5855469e+01   6.6117188e+01
   6.9316406e+01   4.5677734e+01   6.6117188e+01
   6.9138672e+01   4.5855469e+01   6.6117188e+01
   6.8960938e+01   4.6566406e+01   6.5939453e+01
   6.8960938e+01   4.6744141e+01   6.5761719e+01
   6.8960938e+01   4.6566406e+01   6.5583984e+01
   6.8960938e+01   4.6388672e+01   6.5761719e+01
   6.8605469e+01   4.6921875e+01   6.5583984e+01
   6.8783203e+01   4.6921875e+01   6.5761719e+01
   6.8605469e+01   4.6921875e+01   6.5939453e+01
   6.8427734e+01   4.6921875e+01   6.5761719e+01
   6.8605469e+01   4.6744141e+01   6.6117188e+01
   6.8783203e+01   4.6566406e+01   6.6117188e+01
   6.8605469e+01   4.6388672e+01   6.6117188e+01
   6.8427734e+01   4.6566406e+01   6.6117188e+01
   6.9671875e+01   4.6566406e+01   6.5939453e+01
   6.9671875e+01   4.6744141e+01   6.5761719e+01
   6.9671875e+01   4.6566406e+01   6.5583984e+01
   6.9671875e+01   4.6388672e+01   6.5761719e+01
   6.9316406e+01   4.6921875e+01   6.5583984e+01
   6.9494141e+01   4.6921875e+01   6.5761719e+01
   6.9316406e+01   4.6921875e+01   6.5939453e+01
   6.9138672e+01   4.6921875e+01   6.5761719e+01
   6.9316406e+01   4.6744141e+01   6.6117188e+01
   6.9494141e+01   4.6566406e+01   6.6117188e+01
   6.9316406e+01   4.6388672e+01   6.6117188e+01
   6.9138672e+01   4.6566406e+01   6.6117188e+01
   6.8960938e+01   4.5855469e+01   6.6650391e+01
   6.8960938e+01   4.6033203e+01   6.6472656e+01
   6.8960938e+01   4.5855469e+01   6.6294922e+01
   6.8960938e+01   4.5677734e+01   6.6472656e+01
   6.8605469e+01   4.6210938e+01   6.6294922e+01
   6.8783203e+01   4.6210938e+01   6.6472656e+01
   6.8605469e+01   4.6210938e+01   6.6650391e+01
   6.8427734e+01   4.6210938e+01   6.6472656e+01
   6.8605469e+01   4.6033203e+01   6.6828125e+01
   6.8783203e+01   4.5855469e+01   6.6828125e+01
   6.8605469e+01   4.5677734e+01   6.6828125e+01
   6.8427734e+01   4.5855469e+01   6.6828125e+01
   6.9671875e+01   4.5855469e+01   6.6650391e+01
   6.9671875e+01   4.6033203e+01   6.6472656e+01
   6.9671875e+01   4.5855469e+01   6.6294922e+01
   6.9671875e+01   4.5677734e+01   6.6472656e+01
   6.9316406e+01   4.6210938e+01   6.6294922e+01
   6.9494141e+01   4.6210938e+01   6.6472656e+01
   6.9316406e+01   4.6210938e+01   6.6650391e+01
   6.9138672e+01   4.6210938e+01   6.6472656e+01
   6.9316406e+01   4.6033203e+01   6.6828125e+01
   6.9494141e+01   4.5855469e+01   6.6828125e+01
   6.9316406e+01   4.5677734e+01   6.6828125e+01
   6.9138672e+01   4.5855469e+01   6.6828125e+01
   6.8960938e+01   4.6566406e+01   6.6650391e+01
   6.8960938e+01   4.6744141e+01   6.6472656e+01
   6.8960938e+01   4.6566406e+01   6.6294922e+01
   6.8960938e+01   4.6388672e+01   6.6472656e+01
   6.8605469e+01   4.6921875e+01   6.6294922e+01
   6.8783203e+01   4.6921875e+01   6.6472656e+01
   6.8605469e+01   4.6921875e+01   6.6650391e+01
   6.8427734e+01   4.6921875e+01   6.6472656e+01
   6.8605469e+01   4.6744141e+01   6.6828125e+01
   6.8783203e+01   4.6566406e+01   6.6828125e+01
   6.8605469e+01   4.6388672e+01   6.6828125e+01
   6.8427734e+01   4.6566406e+01   6.6828125e+01
   6.9671875e+01   4.6566406e+01   6.6650391e+01
   6.9671875e+01   4.6744141e+01   6.6472656e+01
   6.9671875e+01   4.6566406e+01   6.6294922e+01
   6.9671875e+01   4.6388672e+01   6.6472656e+01
   6.9316406e+01   4.6921875e+01   6.6294922e+01
   6.9494141e+01   4.6921875e+01   6.6472656e+01
   6.9316406e+01   4.6921875e+01   6.6650391e+01
   6.9138672e+01   4.6921875e+01   6.6472656e+01
   6.9316406e+01   4.6744141e+01   6.6828125e+01
   6.9494141e+01   4.6566406e+01   6.6828125e+01
   6.9316406e+01   4.6388672e+01   6.6828125e+01
   6.9138672e+01   4.6566406e+01   6.6828125e+01
   7.0382812e+01   4.5855469e+01   6.5939453e+01
   7.0382812e+01   4.6033203e+01   6.5761719e+01
   7.0382812e+01   4.5855469e+01   6.5583984e+01
   7.0382812e+01   4.5677734e+01   6.5761719e+01
   7.0027344e+01   4.6210938e+01   6.5583984e+01
   7.0205078e+01   4.6210938e+01   6.5761719e+01
   7.0027344e+01   4.6210938e+01   6.5939453e+01
   6.9849609e+01   4.6210938e+01   6.5761719e+01
   7.0027344e+01   4.6033203e+01   6.6117188e+01
   7.0205078e+01   4.5855469e+01   6.6117188e+01
   7.0027344e+01   4.5677734e+01   6.6117188e+01
   6.9849609e+01   4.5855469e+01   6.6117188e+01
   7.1093750e+01   4.5855469e+01   6.5939453e+01
   7.1093750e+01   4.6033203e+01   6.5761719e+01
   7.1093750e+01   4.5855469e+01   6.5583984e+01
   7.1093750e+01   4.5677734e+01   6.5761719e+01
   7.0738281e+01   4.6210938e+01   6.5583984e+01
   7.0916016e+01   4.6210938e+01   6.5761719e+01
   7.0738281e+01   4.6210938e+01   6.5939453e+01
   7.0560547e+01   4.6210938e+01   6.5761719e+01
   7.0738281e+01   4.6033203e+01   6.6117188e+01
   7.0916016e+01   4.5855469e+01   6.6117188e+01
   7.0738281e+01   4.5677734e+01   6.6117188e+01
   7.0560547e+01   4.5855469e+01   6.6117188e+01
   7.0382812e+01   4.6566406e+01   6.5939453e+01
   7.0382812e+01   4.6744141e+01   6.5761719e+01
   7.0382812e+01   4.6566406e+01   6.5583984e+01
   7.0382812e+01   4.6388672e+01   6.5761719e+01
   7.0027344e+01   4.6921875e+01   6.5583984e+01
   7.0205078e+01   4.6921875e+01   6.5761719e+01
   7.0027344e+01   4.6921875e+01   6.5939453e+01
   6.9849609e+01   4.6921875e+01   6.5761719e+01
   7.0027344e+01   4.6744141e+01   6.6117188e+01
   7.0205078e+01   4.6566406e+01   6.6117188e+01
   7.0027344e+01   4.6388672e+01   6.6117188e+01
   6.9849609e+01   4.6566406e+01   6.6117188e+01
   7.1093750e+01   4.6566406e+01   6.5939453e+01
   7.1093750e+01   4.6744141e+01   6.5761719e+01
   7.1093750e+01   4.6566406e+01   6.5583984e+01
   7.1093750e+01   4.6388672e+01   6.5761719e+01
   7.0738281e+01   4.6921875e+01   6.5583984e+01
   7.0916016e+01   4.6921875e+01   6.5761719e+01
   7.0738281e+01   4.6921875e+01   6.5939453e+01
   7.0560547e+01   4.6921875e+01   6.5761719e+01
   7.0738281e+01   4.6744141e+01   6.6117188e+01
   7.0916016e+01   4.6566406e+01   6.6117188e+01
   7.0738281e+01   4.6388672e+01   6.6117188e+01
   7.0560547e+01   4.6566406e+01   6.6117188e+01
   7.0382812e+01   4.5855469e+01   6.6650391e+01
   7.0382812e+01   4.6033203e+01   6.6472656e+01
   7.0382812e+01   4.5855469e+01   6.6294922e+01
   7.0382812e+01   4.5677734e+01   6.6472656e+01
   7.0027344e+01   4.6210938e+01   6.6294922e+01
   7.0205078e+01   4.6210938e+01   6.6472656e+01
   7.0027344e+01   4.6210938e+01   6.6650391e+01
   6.9849609e+01   4.6210938e+01   6.6472656e+01
   7.0027344e+01   4.6033203e+01   6.6828125e+01
   7.0205078e+01   4.5855469e+01   6.6828125e+01
   7.0027344e+01   4.5677734e+01   6.6828125e+01
   6.9849609e+01   4.5855469e+01   6.6828125e+01
   7.1161396e+01   4.5876689e+01   6.6718037e+01
   7.1093750e+01   4.6033203e+01   6.6472656e+01
   7.1093750e+01   4.5855469e+01   6.6294922e+01
   7.1093750e+01   4.5677734e+01   6.6423486e+01
   7.0738281e+01   4.6210938e+01   6.6294922e+01
   7.0916016e+01   4.6210938e+01   6.6472656e+01
   7.0738281e+01   4.6210938e+01   6.6650391e+01
   7.0560547e+01   4.6210938e+01   6.6472656e+01
   7.0738281e+01   4.6033203e+01   6.6828125e+01
   7.0983662e+01   4.5876689e+01   6.6895771e+01
   7.0845625e+01   4.5698955e+01   6.6806904e+01
   7.0560547e+01   4.5855469e+01   6.6828125e+01
   7.0382812e+01   4.6566406e+01   6.6650391e+01
   7.0382812e+01   4.6744141e+01   6.6472656e+01
   7.0382812e+01   4.6566406e+01   6.6294922e+01
   7.0382812e+01   4.6388672e+01   6.6472656e+01
   7.0027344e+01   4.6921875e+01   6.6294922e+01
   7.0205078e+01   4.6921875e+01   6.6472656e+01
   7.0027344e+01   4.6921875e+01   6.6650391e+01
   6.9849609e+01   4.6921875e+01   6.6472656e+01
   7.0027344e+01   4.6744141e+01   6.6828125e+01
   7.0205078e+01   4.6566406e+01   6.6828125e+01
   7.0027344e+01   4.6388672e+01   6.6828125e+01
   6.9849609e+01   4.6566406e+01   6.6828125e+01
   7.1093750e+01   4.6566406e+01   6.6650391e+01
   7.1093750e+01   4.6744141e+01   6.6472656e+01
   7.1093750e+01   4.6566406e+01   6.6294922e+01
   7.1093750e+01   4.6388672e+01   6.6472656e+01
   7.0738281e+01   4.6921875e+01   6.6294922e+01
   7.0916016e+01   4.6921875e+01   6.6472656e+01
   7.0738281e+01   4.6921875e+01   6.6650391e+01
   7.0560547e+01   4.6921875e+01   6.6472656e+01
   7.0738281e+01   4.6744141e+01   6.6828125e+01
   7.0916016e+01   4.6566406e+01   6.6828125e+01
   7.0738281e+01   4.6388672e+01   6.6828125e+01
   7.0560547e+01   4.6566406e+01   6.6828125e+01
   6.8960938e+01   4.7277344e+01   6.5939453e+01
   6.8960938e+01   4.7455078e+01   6.5761719e+01
   6.8960938e+01   4.7277344e+01   6.5583984e+01
   6.8960938e+01   4.7099609e+01   6.5761719e+01
   6.8605469e+01   4.7632812e+01   6.5583984e+01
   6.8783203e+01   4.7632812e+01   6.5761719e+01
   6.8605469e+01   4.7632812e+01   6.5939453e+01
   6.8427734e+01   4.7632812e+01   6.5761719e+01
   6.8605469e+01   4.7455078e+01   6.6117188e+01
   6.8783203e+01   4.7277344e+01   6.6117188e+01
   6.8605469e+01   4.7099609e+01   6.6117188e+01
   6.8427734e+01   4.7277344e+01   6.6117188e+01
   6.9671875e+01   4.7277344e+01   6.5939453e+01
   6.9671875e+01   4.7455078e+01   6.5761719e+01
   6.9671875e+01   4.7277344e+01   6.5583984e+01
   6.9671875e+01   4.7099609e+01   6.5761719e+01
   6.9316406e+01   4.7632812e+01   6.5583984e+01
   6.9494141e+01   4.7632812e+01   6.5761719e+01
   6.9316406e+01   4.7632812e+01   6.5939453e+01
   6.9138672e+01   4.7632812e+01   6.5761719e+01
   6.9316406e+01   4.7455078e+01   6.6117188e+01
   6.9494141e+01   4.7277344e+01   6.6117188e+01
   6.9316406e+01   4.7099609e+01   6.6117188e+01
   6.9138672e+01   4.7277344e+01   6.6117188e+01
   6.8960938e+01   4.7988281e+01   6.5939453e+01
   6.8960938e+01   4.8166016e+01   6.5761719e+01
   6.8960938e+01   4.7988281e+01   6.5583984e+01
   6.8960938e+01   4.7810547e+01   6.5761719e+01
   6.8605469e+01   4.8343750e+01   6.5583984e+01
   6.8783203e+01   4.8343750e+01   6.5761719e+01
   6.8605469e+01   4.8343750e+01   6.5939453e+01
   6.8427734e+01   4.8343750e+01   6.5761719e+01
   6.8605469e+01   4.8166016e+01   6.6117188e+01
   6.8783203e+01   4.7988281e+01   6.6117188e+01
   6.8605469e+01   4.7810547e+01   6.6117188e+01
   6.8427734e+01   4.7988281e+01   6.6117188e+01
   6.9671875e+01   4.7988281e+01   6.5939453e+01
   6.9671875e+01   4.8166016e+01   6.5761719e+01
   6.9671875e+01   4.7988281e+01   6.5583984e+01
   6.9671875e+01   4.7810547e+01   6.5761719e+01
   6.9316406e+01   4.8343750e+01   6.5583984e+01
   6.9494141e+01   4.8343750e+01   6.5761719e+01
   6.9316406e+01   4.8343750e+01   6.5939453e+01
   6.9138672e+01   4.8343750e+01   6.5761719e+01
   6.9316406e+01   4.8166016e+01   6.6117188e+01
   6.9494141e+01   4.7988281e+01   6.6117188e+01
   6.9316406e+01   4.7810547e+01   6.6117188e+01
   6.9138672e+01   4.7988281e+01   6.6117188e+01
   6.8960938e+01   4.7277344e+01   6.6650391e+01
   6.8960938e+01   4.7455078e+01   6.6472656e+01
   6.8960938e+01   4.7277344e+01   6.6294922e+01
   6.8960938e+01   4.7099609e+01   6.6472656e+01
   6.8605469e+01   4.7632812e+01   6.6294922e+01
   6.8783203e+01   4.7632812e+01   6.6472656e+01
   6.8605469e+01   4.7632812e+01   6.6650391e+01
   6.8427734e+01   4.7632812e+01   6.6472656e+01
   6.8605469e+01   4.7455078e+01   6.6828125e+01
   6.8783203e+01   4.7277344e+01   6.6828125e+01
   6.8605469e+01   4.7099609e+01   6.6828125e+01
   6.8427734e+01   4.7277344e+01   6.6828125e+01
   6.9671875e+01   4.7277344e+01   6.6650391e+01
   6.9671875e+01   4.7455078e+01   6.6472656e+01
   6.9671875e+01   4.7277344e+01   6.6294922e+01
   6.9671875e+01   4.7099609e+01   6.6472656e+01
   6.9316406e+01   4.7632812e+01   6.6294922e+01
   6.9494141e+01   4.7632812e+01   6.6472656e+01
   6.9316406e+01   4.7632812e+01   6.6650391e+01
   6.9138672e+01   4.7632812e+01   6.6472656e+01
   6.9316406e+01   4.7455078e+01   6.6828125e+01
   6.9494141e+01   4.7277344e+01   6.6828125e+01
   6.9316406e+01   4.7099609e+01   6.6828125e+01
   6.9138672e+01   4.7277344e+01   6.6828125e+01
   6.8960938e+01   4.7988281e+01   6.6650391e+01
   6.8960938e+01   4.8166016e+01   6.6472656e+01
   6.8960938e+01   4.7988281e+01   6.6294922e+01
   6.8960938e+01   4.7810547e+01   6.6472656e+01
   6.8605469e+01   4.8343750e+01   6.6294922e+01
   6.8783203e+01   4.8343750e+01   6.6472656e+01
   6.8605469e+01   4.8343750e+01   6.6650391e+01
   6.8427734e+01   4.8343750e+01   6.6472656e+01
   6.8605469e+01   4.8166016e+01   6.6828125e+01
   6.8783203e+01   4.7988281e+01   6.6828125e+01
   6.8605469e+01   4.7810547e+01   6.6828125e+01
   6.8427734e+01   4.7988281e+01   6.6828125e+01
   6.9671875e+01   4.7988281e+01   6.6650391e+01
   6.9671875e+01   4.8166016e+01   6.6472656e+01
   6.9671875e+01   4.7988281e+01   6.6294922e+01
   6.9671875e+01   4.7810547e+01   6.6472656e+01
   6.9316406e+01   4.8343750e+01   6.6294922e+01
   6.9494141e+01   4.8343750e+01   6.6472656e+01
   6.9138672e+01   4.8343750e+01   6.6472656e+01
   6.9316406e+01   4.8166016e+01   6.6828125e+01
   6.9494141e+01   4.7988281e+01   6.6828125e+01
   6.9316406e+01   4.7810547e+01   6.6828125e+01
   6.9138672e+01   4.7988281e+01   6.6828125e+01
   7.0382812e+01   4.7277344e+01   6.5939453e+01
   7.0382812e+01   4.7455078e+01   6.5761719e+01
   7.0382812e+01   4.7277344e+01   6.5583984e+01
   7.0382812e+01   4.7099609e+01   6.5761719e+01
   7.0027344e+01   4.7632812e+01   6.5583984e+01
   7.0205078e+01   4.7632812e+01   6.5761719e+01
   7.0027344e+01   4.7632812e+01   6.5939453e+01
   6.9849609e+01   4.7632812e+01   6.5761719e+01
   7.0027344e+01   4.7455078e+01   6.6117188e+01
   7.0205078e+01   4.7277344e+01   6.6117188e+01
   7.0027344e+01   4.7099609e+01   6.6117188e+01
   6.9849609e+01   4.7277344e+01   6.6117188e+01
   7.1093750e+01   4.7277344e+01   6.5939453e+01
   7.1093750e+01   4.7455078e+01   6.5761719e+01
   7.1093750e+01   4.7277344e+01   6.5583984e+01
   7.1093750e+01   4.7099609e+01   6.5761719e+01
   7.0738281e+01   4.7632812e+01   6.5583984e+01
   7.0916016e+01   4.7632812e+01   6.5761719e+01
   7.0738281e+01   4.7632812e+01   6.5939453e+01
   7.0560547e+01   4.7632812e+01   6.5761719e+01
   7.0738281e+01   4.7455078e+01   6.6117188e+01
   7.0916016e+01   4.7277344e+01   6.6117188e+01
   7.0738281e+01   4.7099609e+01   6.6117188e+01
   7.0560547e+01   4.7277344e+01   6.6117188e+01
   7.0382812e+01   4.7988281e+01   6.5939453e+01
   7.0382812e+01   4.8166016e+01   6.5761719e+01
   7.0382812e+01   4.7988281e+01   6.5583984e+01
   7.0382812e+01   4.7810547e+01   6.5761719e+01
   7.0027344e+01   4.8343750e+01   6.5583984e+01
   7.0205078e+01   4.8343750e+01   6.5761719e+01
   7.0027344e+01   4.8343750e+01   6.5939453e+01
   6.9849609e+01   4.8343750e+01   6.5761719e+01
   7.0027344e+01   4.8166016e+01   6.6117188e+01
   7.0205078e+01   4.7988281e+01   6.6117188e+01
   7.0027344e+01   4.7810547e+01   6.6117188e+01
   6.9849609e+01   4.7988281e+01   6.6117188e+01
   7.1093750e+01   4.7988281e+01   6.5939453e+01
   7.1093750e+01   4.8166016e+01   6.5761719e+01
   7.1093750e+01   4.7988281e+01   6.5583984e+01
   7.1093750e+01   4.7810547e+01   6.5761719e+01
   7.0738281e+01   4.8343750e+01   6.5583984e+01
   7.0916016e+01   4.8343750e+01   6.5761719e+01
   7.0738281e+01   4.8343750e+01   6.5939453e+01
   7.0560547e+01   4.8343750e+01   6.5761719e+01
   7.0738281e+01   4.8166016e+01   6.6117188e+01
   7.0916016e+01   4.7988281e+01   6.6117188e+01
   7.0738281e+01   4.7810547e+01   6.6117188e+01
   7.0560547e+01   4.7988281e+01   6.6117188e+01
   7.0382812e+01   4.7277344e+01   6.6650391e+01
   7.0382812e+01   4.7455078e+01   6.6472656e+01
   7.0382812e+01   4.7277344e+01   6.6294922e+01
   7.0382812e+01   4.7099609e+01   6.6472656e+01
   7.0027344e+01   4.7632812e+01   6.6294922e+01
   7.0205078e+01   4.7632812e+01   6.6472656e+01
   7.0027344e+01   4.7632812e+01   6.6650391e+01
   6.9849609e+01   4.7632812e+01   6.6472656e+01
   7.0027344e+01   4.7455078e+01   6.6828125e+01
   7.0205078e+01   4.7277344e+01   6.6828125e+01
   7.0027344e+01   4.7099609e+01   6.6828125e+01
   6.9849609e+01   4.7277344e+01   6.6828125e+01
   7.1093750e+01   4.7277344e+01   6.6650391e+01
   7.1093750e+01   4.7455078e+01   6.6472656e+01
   7.1093750e+01   4.7277344e+01   6.6294922e+01
   7.1093750e+01   4.7099609e+01   6.6472656e+01
   7.0738281e+01   4.7632812e+01   6.6294922e+01
   7.0916016e+01   4.7632812e+01   6.6472656e+01
   7.0738281e+01   4.7632812e+01   6.6650391e+01
   7.0560547e+01   4.7632812e+01   6.6472656e+01
   7.0738281e+01   4.7455078e+01   6.6828125e+01
   7.0916016e+01   4.7277344e+01   6.6828125e+01
   7.0738281e+01   4.7099609e+01   6.6828125e+01
   7.0560547e+01   4.7277344e+01   6.6828125e+01
   7.0382812e+01   4.7988281e+01   6.6650391e+01
   7.0382812e+01   4.8166016e+01   6.6472656e+01
   7.0382812e+01   4.7988281e+01   6.6294922e+01
   7.0382812e+01   4.7810547e+01   6.6472656e+01
   7.0027344e+01   4.8343750e+01   6.6294922e+01
   7.0205078e+01   4.7988281e+01   6.6828125e+01
   7.0027344e+01   4.7810547e+01   6.6828125e+01
   6.9849609e+01   4.7988281e+01   6.6828125e+01
   7.1093750e+01   4.7988281e+01   6.6294922e+01
   7.1093750e+01   4.7810547e+01   6.6472656e+01
   7.0738281e+01   4.7810547e+01   6.6828125e+01
   7.0560547e+01   4.7988281e+01   6.6828125e+01
   6.8960938e+01   4.5855469e+01   6.7361328e+01
   6.8960938e+01   4.6033203e+01   6.7183594e+01
   6.8960938e+01   4.5855469e+01   6.7005859e+01
   6.8960938e+01   4.5677734e+01   6.7183594e+01
   6.8605469e+01   4.6210938e+01   6.7005859e+01
   6.8783203e+01   4.6210938e+01   6.7183594e+01
   6.8605469e+01   4.6210938e+01   6.7361328e+01
   6.8427734e+01   4.6210938e+01   6.7183594e+01
   6.8605469e+01   4.6033203e+01   6.7539062e+01
   6.8783203e+01   4.5855469e+01   6.7539062e+01
   6.8605469e+01   4.5677734e+01   6.7539062e+01
   6.8427734e+01   4.5855469e+01   6.7539062e+01
   6.9671875e+01   4.5855469e+01   6.7361328e+01
   6.9671875e+01   4.6033203e+01   6.7183594e+01
   6.9671875e+01   4.5855469e+01   6.7005859e+01
   6.9671875e+01   4.5677734e+01   6.7183594e+01
   6.9316406e+01   4.6210938e+01   6.7005859e+01
   6.9494141e+01   4.6210938e+01   6.7183594e+01
   6.9316406e+01   4.6210938e+01   6.7361328e+01
   6.9138672e+01   4.6210938e+01   6.7183594e+01
   6.9316406e+01   4.6033203e+01   6.7539062e+01
   6.9494141e+01   4.5855469e+01   6.7539062e+01
   6.9316406e+01   4.5677734e+01   6.7539062e+01
   6.9138672e+01   4.5855469e+01   6.7539062e+01
   6.8960938e+01   4.6566406e+01   6.7361328e+01
   6.8960938e+01   4.6744141e+01   6.7183594e+01
   6.8960938e+01   4.6566406e+01   6.7005859e+01
   6.8960938e+01   4.6388672e+01   6.7183594e+01
   6.8605469e+01   4.6921875e+01   6.7005859e+01
   6.8783203e+01   4.6921875e+01   6.7183594e+01
   6.8605469e+01   4.6921875e+01   6.7361328e+01
   6.8427734e+01   4.6921875e+01   6.7183594e+01
   6.8605469e+01   4.6744141e+01   6.7539062e+01
   6.8783203e+01   4.6566406e+01   6.7539062e+01
   6.8605469e+01   4.6388672e+01   6.7539062e+01
   6.8427734e+01   4.6566406e+01   6.7539062e+01
   6.9671875e+01   4.6566406e+01   6.7361328e+01
   6.9671875e+01   4.6744141e+01   6.7183594e+01
   6.9671875e+01   4.6566406e+01   6.7005859e+01
   6.9671875e+01   4.6388672e+01   6.7183594e+01
   6.9316406e+01   4.6921875e+01   6.7005859e+01
   6.9494141e+01   4.6921875e+01   6.7183594e+01
   6.9316406e+01   4.6921875e+01   6.7361328e+01
   6.9138672e+01   4.6921875e+01   6.7183594e+01
   6.9316406e+01   4.6744141e+01   6.7539062e+01
   6.9494141e+01   4.6566406e+01   6.7539062e+01
   6.9316406e+01   4.6388672e+01   6.7539062e+01
   6.9138672e+01   4.6566406e+01   6.7539062e+01
   6.8960938e+01   4.5855469e+01   6.8072266e+01
   6.8960938e+01   4.6033203e+01   6.7894531e+01
   6.8960938e+01   4.5855469e+01   6.7716797e+01
   6.8960938e+01   4.5677734e+01   6.7894531e+01
   6.8605469e+01   4.6210938e+01   6.7716797e+01
   6.8783203e+01   4.6210938e+01   6.7894531e+01
   6.8605469e+01   4.6210938e+01   6.8072266e+01
   6.8427734e+01   4.6210938e+01   6.7894531e+01
   6.8605469e+01   4.6033203e+01   6.8250000e+01
   6.8783203e+01   4.5855469e+01   6.8250000e+01
   6.8605469e+01   4.5677734e+01   6.8250000e+01
   6.8427734e+01   4.5855469e+01   6.8250000e+01
   6.9603971e+01   4.5878104e+01   6.8049631e+01
   6.9847400e+01   4.5940972e+01   6.7759857e+01
   6.9647289e+01   4.5653149e+01   6.7820775e+01
   6.9316406e+01   4.6210938e+01   6.7716797e+01
   6.9494141e+01   4.6210938e+01   6.7894531e+01
   6.9316406e+01   4.6210938e+01   6.8072266e+01
   6.9138672e+01   4.6210938e+01   6.7894531e+01
   6.9295186e+01   4.6054424e+01   6.8361244e+01
   6.9471506e+01   4.5878104e+01   6.8182096e+01
   6.9422336e+01   4.5700369e+01   6.8182096e+01
   6.9114086e+01   4.5830884e+01   6.8225414e+01
   6.8960938e+01   4.6566406e+01   6.8072266e+01
   6.8960938e+01   4.6744141e+01   6.7894531e+01
   6.8960938e+01   4.6566406e+01   6.7716797e+01
   6.8960938e+01   4.6388672e+01   6.7894531e+01
   6.8605469e+01   4.6921875e+01   6.7716797e+01
   6.8783203e+01   4.6921875e+01   6.7894531e+01
   6.8605469e+01   4.6921875e+01   6.8072266e+01
   6.8427734e+01   4.6921875e+01   6.7894531e+01
   6.8605469e+01   4.6744141e+01   6.8250000e+01
   6.8783203e+01   4.6566406e+01   6.8250000e+01
   6.8605469e+01   4.6388672e+01   6.8250000e+01
   6.8427734e+01   4.6566406e+01   6.8250000e+01
   6.9671875e+01   4.6566406e+01   6.8072266e+01
   6.9671875e+01   4.6744141e+01   6.7894531e+01
   6.9671875e+01   4.6566406e+01   6.7716797e+01
   6.9671875e+01   4.6388672e+01   6.7894531e+01
   6.9316406e+01   4.6921875e+01   6.7716797e+01
   6.9494141e+01   4.6921875e+01   6.7894531e+01
   6.9316406e+01   4.6921875e+01   6.8072266e+01
   6.9138672e+01   4.6921875e+01   6.7894531e+01
   6.9316406e+01   4.6744141e+01   6.8250000e+01
   6.9494141e+01   4.6566406e+01   6.8250000e+01
   6.9316406e+01   4.6388672e+01   6.8250000e+01
   6.9138672e+01   4.6566406e+01   6.8250000e+01
   7.0373336e+01   4.5878563e+01   6.7351393e+01
   7.0395596e+01   4.6034037e+01   6.7195918e+01
   7.0382812e+01   4.5855469e+01   6.7005859e+01
   7.0382812e+01   4.5677734e+01   6.7134424e+01
   7.0027344e+01   4.6210938e+01   6.7005859e+01
   7.0217861e+01   4.6211771e+01   6.7195918e+01
   7.0040127e+01   4.6211771e+01   6.7373652e+01
   6.9849609e+01   4.6210938e+01   6.7183594e+01
   7.0018906e+01   4.6055258e+01   6.7663379e+01
   7.0195602e+01   4.5878563e+01   6.7484605e+01
   7.0133648e+01   4.5699995e+01   6.7472281e+01
   6.9825023e+01   4.5830884e+01   6.7514477e+01
   7.1026104e+01   4.6011983e+01   6.6938213e+01
   7.0738281e+01   4.6210938e+01   6.7005859e+01
   7.0573330e+01   4.6211771e+01   6.7195918e+01
   7.0395596e+01   4.6567240e+01   6.7373652e+01
   7.0382812e+01   4.6744141e+01   6.7183594e+01
   7.0382812e+01   4.6566406e+01   6.7005859e+01
   7.0395596e+01   4.6389506e+01   6.7195918e+01
   7.0027344e+01   4.6921875e+01   6.7005859e+01
   7.0205078e+01   4.6921875e+01   6.7183594e+01
   7.0027344e+01   4.6921875e+01   6.7361328e+01
   6.9849609e+01   4.6921875e+01   6.7183594e+01
   7.0027344e+01   4.6744141e+01   6.7539062e+01
   7.0217861e+01   4.6567240e+01   6.7551387e+01
   7.0040127e+01   4.6389506e+01   6.7551387e+01
   6.9849609e+01   4.6566406e+01   6.7539062e+01
   7.0843600e+01   4.6577285e+01   6.7239742e+01
   7.0909832e+01   4.6688787e+01   6.7217107e+01
   7.1063871e+01   4.6645456e+01   6.6975980e+01
   7.1029469e+01   4.6324390e+01   6.6986848e+01
   7.0738281e+01   4.6921875e+01   6.7005859e+01
   7.0560547e+01   4.6921875e+01   6.7183594e+01
   7.0624977e+01   4.6833236e+01   6.7516994e+01
   7.0794430e+01   4.6577285e+01   6.7288912e+01
   7.0684832e+01   4.6455738e+01   6.7356590e+01
   7.0573330e+01   4.6567240e+01   6.7422822e+01
   7.0150215e+01   4.6368285e+01   6.7839209e+01
   7.0122918e+01   4.6570368e+01   6.7940936e+01
   7.0389184e+01   4.6622822e+01   6.7673539e+01
   7.0199385e+01   4.6457152e+01   6.7839209e+01
   7.0027344e+01   4.6921875e+01   6.7716797e+01
   6.9849609e+01   4.6921875e+01   6.7894531e+01
   6.9833742e+01   4.6810373e+01   6.8183768e+01
   7.0073748e+01   4.6570368e+01   6.7986205e+01
   6.9959697e+01   4.6456318e+01   6.8049889e+01
   6.9872244e+01   4.6543771e+01   6.8140170e+01
   7.0556828e+01   4.6942822e+01   6.7626580e+01
   7.0470330e+01   4.6942822e+01   6.7694545e+01
   6.8960938e+01   4.7277344e+01   6.7361328e+01
   6.8960938e+01   4.7455078e+01   6.7183594e+01
   6.8960938e+01   4.7277344e+01   6.7005859e+01
   6.8960938e+01   4.7099609e+01   6.7183594e+01
   6.8605469e+01   4.7632812e+01   6.7005859e+01
   6.8783203e+01   4.7632812e+01   6.7183594e+01
   6.8605469e+01   4.7632812e+01   6.7361328e+01
   6.8427734e+01   4.7632812e+01   6.7183594e+01
   6.8605469e+01   4.7455078e+01   6.7539062e+01
   6.8783203e+01   4.7277344e+01   6.7539062e+01
   6.8605469e+01   4.7099609e+01   6.7539062e+01
   6.8427734e+01   4.7277344e+01   6.7539062e+01
   6.9671875e+01   4.7277344e+01   6.7361328e+01
   6.9671875e+01   4.7455078e+01   6.7183594e+01
   6.9671875e+01   4.7277344e+01   6.7005859e+01
   6.9671875e+01   4.7099609e+01   6.7183594e+01
   6.9316406e+01   4.7632812e+01   6.7005859e+01
   6.9494141e+01   4.7632812e+01   6.7183594e+01
   6.9316406e+01   4.7632812e+01   6.7361328e+01
   6.9138672e+01   4.7632812e+01   6.7183594e+01
   6.9316406e+01   4.7455078e+01   6.7539062e+01
   6.9494141e+01   4.7277344e+01   6.7539062e+01
   6.9316406e+01   4.7099609e+01   6.7539062e+01
   6.9138672e+01   4.7277344e+01   6.7539062e+01
   6.8960938e+01   4.7988281e+01   6.7361328e+01
   6.8960938e+01   4.7988281e+01   6.7005859e+01
   6.8960938e+01   4.7810547e+01   6.7183594e+01
   6.8783203e+01   4.7988281e+01   6.7539062e+01
   6.8605469e+01   4.7810547e+01   6.7539062e+01
   6.8427734e+01   4.7988281e+01   6.7539062e+01
   6.9671875e+01   4.7988281e+01   6.7005859e+01
   6.9671875e+01   4.7810547e+01   6.7183594e+01
   6.9316406e+01   4.7810547e+01   6.7539062e+01
   6.8960938e+01   4.7277344e+01   6.8072266e+01
   6.8960938e+01   4.7455078e+01   6.7894531e+01
   6.8960938e+01   4.7277344e+01   6.7716797e+01
   6.8960938e+01   4.7099609e+01   6.7894531e+01
   6.8605469e+01   4.7632812e+01   6.7716797e+01
   6.8783203e+01   4.7632812e+01   6.7894531e+01
   6.8605469e+01   4.7632812e+01   6.8072266e+01
   6.8427734e+01   4.7632812e+01   6.7894531e+01
   6.8605469e+01   4.7455078e+01   6.8250000e+01
   6.8783203e+01   4.7277344e+01   6.8250000e+01
   6.8605469e+01   4.7099609e+01   6.8250000e+01
   6.8427734e+01   4.7277344e+01   6.8250000e+01
   6.9671875e+01   4.7277344e+01   6.8072266e+01
   6.9671875e+01   4.7455078e+01   6.7894531e+01
   6.9671875e+01   4.7277344e+01   6.7716797e+01
   6.9671875e+01   4.7099609e+01   6.7894531e+01
   6.9316406e+01   4.7632812e+01   6.7716797e+01
   6.9494141e+01   4.7632812e+01   6.7894531e+01
   6.9316406e+01   4.7632812e+01   6.8072266e+01
   6.9138672e+01   4.7632812e+01   6.7894531e+01
   6.9316406e+01   4.7455078e+01   6.8250000e+01
   6.9494141e+01   4.7277344e+01   6.8250000e+01
   6.9316406e+01   4.7099609e+01   6.8250000e+01
   6.9138672e+01   4.7277344e+01   6.8250000e+01
   6.8960938e+01   4.7810547e+01   6.7894531e+01
   7.0382812e+01   4.7277344e+01   6.7361328e+01
   7.0382812e+01   4.7455078e+01   6.7183594e+01
   7.0382812e+01   4.7277344e+01   6.7005859e+01
   7.0382812e+01   4.7099609e+01   6.7183594e+01
   7.0027344e+01   4.7632812e+01   6.7005859e+01
   7.0205078e+01   4.7632812e+01   6.7183594e+01
   7.0027344e+01   4.7632812e+01   6.7361328e+01
   6.9849609e+01   4.7632812e+01   6.7183594e+01
   7.0027344e+01   4.7455078e+01   6.7539062e+01
   7.0205078e+01   4.7277344e+01   6.7539062e+01
   7.0027344e+01   4.7099609e+01   6.7539062e+01
   6.9849609e+01   4.7277344e+01   6.7539062e+01
   7.0985592e+01   4.7287161e+01   6.7302340e+01
   7.1019994e+01   4.7430493e+01   6.7291473e+01
   7.1126469e+01   4.7355332e+01   6.7038578e+01
   7.1060236e+01   4.7066096e+01   6.7061213e+01
   7.0738281e+01   4.7632812e+01   6.7005859e+01
   7.0560547e+01   4.7632812e+01   6.7183594e+01
   7.0670377e+01   4.7477713e+01   6.7644992e+01
   7.0857027e+01   4.7287161e+01   6.7430904e+01
   7.0666875e+01   4.7010510e+01   6.7558893e+01
   7.0525912e+01   4.7242709e+01   6.7632992e+01
   7.0382812e+01   4.7810547e+01   6.7183594e+01
   7.0228514e+01   4.7297589e+01   6.7984994e+01
   7.0525117e+01   4.7354211e+01   6.7748395e+01
   7.0348178e+01   4.7064975e+01   6.7750127e+01
   7.0027344e+01   4.7632812e+01   6.7716797e+01
   6.9849609e+01   4.7632812e+01   6.7894531e+01
   7.0117807e+01   4.7297589e+01   6.8073861e+01
   7.0023951e+01   4.7153368e+01   6.8107375e+01
   6.9794256e+01   4.7221990e+01   6.8194646e+01
   7.1859910e+01   4.5875755e+01   6.5993365e+01
   7.1792264e+01   4.6032269e+01   6.5747984e+01
   7.1792264e+01   4.5854534e+01   6.5570250e+01
   7.1792264e+01   4.5676800e+01   6.5697619e+01
   7.1449219e+01   4.6210938e+01   6.5583984e+01
   7.1626953e+01   4.6210938e+01   6.5761719e+01
   7.1449219e+01   4.6210938e+01   6.5939453e+01
   7.1271484e+01   4.6210938e+01   6.5761719e+01
   7.1449219e+01   4.6033203e+01   6.6117188e+01
   7.1694600e+01   4.5876689e+01   6.6184834e+01
   7.1556562e+01   4.5698955e+01   6.6095967e+01
   7.1271484e+01   4.5855469e+01   6.6117188e+01
   7.2135867e+01   4.6209068e+01   6.5556717e+01
   7.1969998e+01   4.6210003e+01   6.5747984e+01
   7.1946873e+01   4.6099916e+01   6.6035807e+01
   7.1902352e+01   4.6011049e+01   6.6035807e+01
   7.1804688e+01   4.6566406e+01   6.5939453e+01
   7.1804688e+01   4.6744141e+01   6.5761719e+01
   7.1804688e+01   4.6566406e+01   6.5583984e+01
   7.1804688e+01   4.6388672e+01   6.5761719e+01
   7.1449219e+01   4.6921875e+01   6.5583984e+01
   7.1626953e+01   4.6921875e+01   6.5761719e+01
   7.1449219e+01   4.6921875e+01   6.5939453e+01
   7.1271484e+01   4.6921875e+01   6.5761719e+01
   7.1449219e+01   4.6744141e+01   6.6117188e+01
   7.1626953e+01   4.6566406e+01   6.6117188e+01
   7.1449219e+01   4.6388672e+01   6.6117188e+01
   7.1271484e+01   4.6566406e+01   6.6117188e+01
   7.2252121e+01   4.6569328e+01   6.5809162e+01
   7.2340990e+01   4.6658195e+01   6.5720296e+01
   7.2303939e+01   4.6454344e+01   6.5681578e+01
   7.2160156e+01   4.6921875e+01   6.5583984e+01
   7.1982422e+01   4.6921875e+01   6.5761719e+01
   7.2019988e+01   4.6824905e+01   6.6086789e+01
   7.2207600e+01   4.6569328e+01   6.5858332e+01
   7.1984922e+01   4.6302129e+01   6.6075166e+01
   7.1918141e+01   4.6502124e+01   6.6102076e+01
   7.1737041e+01   4.6011983e+01   6.6227275e+01
   7.1449219e+01   4.6210938e+01   6.6294922e+01
   7.1560721e+01   4.6277170e+01   6.6406424e+01
   7.1271484e+01   4.6210938e+01   6.6472656e+01
   7.1249107e+01   4.6100851e+01   6.6760479e+01
   7.1203838e+01   4.6011983e+01   6.6760479e+01
   7.1895016e+01   4.6214303e+01   6.6162994e+01
   7.1554537e+01   4.6577285e+01   6.6528805e+01
   7.1822861e+01   4.6646573e+01   6.6263926e+01
   7.1789576e+01   4.6324390e+01   6.6275910e+01
   7.1449219e+01   4.6921875e+01   6.6294922e+01
   7.1626064e+01   4.6989791e+01   6.6471768e+01
   7.1271484e+01   4.6921875e+01   6.6472656e+01
   7.1305887e+01   4.6798605e+01   6.6773660e+01
   7.1505367e+01   4.6577285e+01   6.6577975e+01
   7.1407572e+01   4.6479489e+01   6.6657914e+01
   7.1207203e+01   4.6502124e+01   6.6763844e+01
   7.1960170e+01   4.6942822e+01   6.6204705e+01
   7.1892205e+01   4.6942822e+01   6.6291203e+01
   7.1804688e+01   4.7277344e+01   6.5939453e+01
   7.1804688e+01   4.7455078e+01   6.5761719e+01
   7.1804688e+01   4.7277344e+01   6.5583984e+01
   7.1804688e+01   4.7099609e+01   6.5761719e+01
   7.1449219e+01   4.7632812e+01   6.5583984e+01
   7.1626953e+01   4.7632812e+01   6.5761719e+01
   7.1449219e+01   4.7632812e+01   6.5939453e+01
   7.1271484e+01   4.7632812e+01   6.5761719e+01
   7.1449219e+01   4.7455078e+01   6.6117188e+01
   7.1626953e+01   4.7277344e+01   6.6117188e+01
   7.1449219e+01   4.7099609e+01   6.6117188e+01
   7.1271484e+01   4.7277344e+01   6.6117188e+01
   7.2316336e+01   4.7297594e+01   6.5849934e+01
   7.2405203e+01   4.7386461e+01   6.5761066e+01
   7.2160156e+01   4.7632812e+01   6.5583984e+01
   7.1982422e+01   4.7632812e+01   6.5761719e+01
   7.2092252e+01   4.7477713e+01   6.6203018e+01
   7.2248371e+01   4.7297594e+01   6.5958398e+01
   7.2049734e+01   4.7030992e+01   6.6116535e+01
   7.1947787e+01   4.7242709e+01   6.6191018e+01
   7.1804688e+01   4.7988281e+01   6.5939453e+01
   7.1804688e+01   4.8166016e+01   6.5761719e+01
   7.1804688e+01   4.7988281e+01   6.5583984e+01
   7.1804688e+01   4.7810547e+01   6.5761719e+01
   7.1449219e+01   4.8343750e+01   6.5583984e+01
   7.1271484e+01   4.8343750e+01   6.5761719e+01
   7.1626953e+01   4.7988281e+01   6.6117188e+01
   7.1449219e+01   4.7810547e+01   6.6117188e+01
