   6.7894531e+01   4.5500000e+01   6.3451172e+01
   6.7716797e+01   4.5500000e+01   6.3628906e+01
   6.7361328e+01   4.5500000e+01   6.3628906e+01
   6.6472656e+01   4.5500000e+01   6.4517578e+01
   6.8072266e+01   4.6033203e+01   6.3628906e+01
   6.8072266e+01   4.6388672e+01   6.3628906e+01
   6.7361328e+01   4.6566406e+01   6.3806641e+01
   6.7716797e+01   4.6566406e+01   6.3806641e+01
   6.7894531e+01   4.6388672e+01   6.3806641e+01
   6.7894531e+01   4.6033203e+01   6.3806641e+01
   6.7716797e+01   4.5855469e+01   6.3806641e+01
   6.7361328e+01   4.5855469e+01   6.3806641e+01
   6.7183594e+01   4.6033203e+01   6.3806641e+01
   6.7716797e+01   4.7277344e+01   6.3984375e+01
   6.6650391e+01   4.6388672e+01   6.5050781e+01
   6.6650391e+01   4.6566406e+01   6.4873047e+01
   6.6650391e+01   4.6566406e+01   6.4517578e+01
   6.6650391e+01   4.6388672e+01   6.4339844e+01
   6.6650391e+01   4.6033203e+01   6.4339844e+01
   6.6650391e+01   4.5855469e+01   6.4517578e+01
   6.6650391e+01   4.5855469e+01   6.4873047e+01
   6.6472656e+01   4.6921875e+01   6.4873047e+01
   6.7894531e+01   4.7099609e+01   6.4517578e+01
   6.7716797e+01   4.7099609e+01   6.4339844e+01
   6.7361328e+01   4.7099609e+01   6.4339844e+01
   6.7183594e+01   4.7099609e+01   6.4517578e+01
   6.7183594e+01   4.7099609e+01   6.4873047e+01
   6.6916992e+01   4.5233398e+01   6.4428711e+01
   6.7539062e+01   4.5144531e+01   6.4517578e+01
   6.7539062e+01   4.5322266e+01   6.4339844e+01
   6.7183594e+01   4.5500000e+01   6.4162109e+01
   6.7361328e+01   4.5500000e+01   6.4339844e+01
   6.7183594e+01   4.5500000e+01   6.4517578e+01
   6.7005859e+01   4.5500000e+01   6.4339844e+01
   6.7183594e+01   4.5322266e+01   6.4695312e+01
   6.7361328e+01   4.5144531e+01   6.4695312e+01
   6.7005859e+01   4.5144531e+01   6.4695312e+01
   6.8250000e+01   4.5144531e+01   6.4517578e+01
   6.8250000e+01   4.5322266e+01   6.4339844e+01
   6.8250000e+01   4.5144531e+01   6.4162109e+01
   6.7894531e+01   4.5500000e+01   6.4162109e+01
   6.8072266e+01   4.5500000e+01   6.4339844e+01
   6.7894531e+01   4.5500000e+01   6.4517578e+01
   6.7716797e+01   4.5500000e+01   6.4339844e+01
   6.7805664e+01   4.5233398e+01   6.4073242e+01
   6.7894531e+01   4.5322266e+01   6.4695312e+01
   6.8072266e+01   4.5144531e+01   6.4695312e+01
   6.7894531e+01   4.4966797e+01   6.4695312e+01
   6.7716797e+01   4.5144531e+01   6.4695312e+01
   6.7183594e+01   4.4789062e+01   6.5228516e+01
   6.8072266e+01   4.4789062e+01   6.5050781e+01
   6.7894531e+01   4.4789062e+01   6.5228516e+01
   6.7716797e+01   4.4789062e+01   6.5050781e+01
   6.7894531e+01   4.4611328e+01   6.5406250e+01
   6.6916992e+01   4.5233398e+01   6.4961914e+01
   6.6916992e+01   4.5055664e+01   6.5139648e+01
   6.7539062e+01   4.5144531e+01   6.5228516e+01
   6.7539062e+01   4.5322266e+01   6.5050781e+01
   6.7539062e+01   4.5144531e+01   6.4873047e+01
   6.7539062e+01   4.4966797e+01   6.5050781e+01
   6.7183594e+01   4.5500000e+01   6.4873047e+01
   6.7361328e+01   4.5500000e+01   6.5050781e+01
   6.7183594e+01   4.5500000e+01   6.5228516e+01
   6.7005859e+01   4.5500000e+01   6.5050781e+01
   6.7183594e+01   4.5322266e+01   6.5406250e+01
   6.7361328e+01   4.5144531e+01   6.5406250e+01
   6.7183594e+01   4.4966797e+01   6.5406250e+01
   6.8250000e+01   4.5144531e+01   6.5228516e+01
   6.8250000e+01   4.5322266e+01   6.5050781e+01
   6.8250000e+01   4.5144531e+01   6.4873047e+01
   6.8250000e+01   4.4966797e+01   6.5050781e+01
   6.7894531e+01   4.5500000e+01   6.4873047e+01
   6.8072266e+01   4.5500000e+01   6.5050781e+01
   6.7894531e+01   4.5500000e+01   6.5228516e+01
   6.7716797e+01   4.5500000e+01   6.5050781e+01
   6.7894531e+01   4.5322266e+01   6.5406250e+01
   6.8072266e+01   4.5144531e+01   6.5406250e+01
   6.7894531e+01   4.4966797e+01   6.5406250e+01
   6.7716797e+01   4.5144531e+01   6.5406250e+01
   6.8072266e+01   4.4078125e+01   6.6472656e+01
   6.7539062e+01   4.4611328e+01   6.5761719e+01
   6.8250000e+01   4.4433594e+01   6.5939453e+01
   6.8250000e+01   4.4611328e+01   6.5761719e+01
   6.8250000e+01   4.4433594e+01   6.5583984e+01
   6.7894531e+01   4.4789062e+01   6.5583984e+01
   6.8072266e+01   4.4789062e+01   6.5761719e+01
   6.7894531e+01   4.4789062e+01   6.5939453e+01
   6.7716797e+01   4.4789062e+01   6.5761719e+01
   6.7894531e+01   4.4611328e+01   6.6117188e+01
   6.8072266e+01   4.4433594e+01   6.6117188e+01
   6.7894531e+01   4.4255859e+01   6.6117188e+01
   6.7539062e+01   4.5144531e+01   6.5939453e+01
   6.7539062e+01   4.5322266e+01   6.5761719e+01
   6.7539062e+01   4.5144531e+01   6.5583984e+01
   6.7539062e+01   4.4966797e+01   6.5761719e+01
   6.7183594e+01   4.5500000e+01   6.5583984e+01
   6.7361328e+01   4.5500000e+01   6.5761719e+01
   6.8250000e+01   4.5144531e+01   6.5939453e+01
   6.8250000e+01   4.5322266e+01   6.5761719e+01
   6.8250000e+01   4.5144531e+01   6.5583984e+01
   6.8250000e+01   4.4966797e+01   6.5761719e+01
   6.7894531e+01   4.5500000e+01   6.5583984e+01
   6.8072266e+01   4.5500000e+01   6.5761719e+01
   6.7894531e+01   4.5500000e+01   6.5939453e+01
   6.7716797e+01   4.5500000e+01   6.5761719e+01
   6.7894531e+01   4.5322266e+01   6.6117188e+01
   6.8072266e+01   4.5144531e+01   6.6117188e+01
   6.7894531e+01   4.4966797e+01   6.6117188e+01
   6.7716797e+01   4.5144531e+01   6.6117188e+01
   6.8250000e+01   4.4433594e+01   6.6650391e+01
   6.8250000e+01   4.4611328e+01   6.6472656e+01
   6.8250000e+01   4.4433594e+01   6.6294922e+01
   6.8250000e+01   4.4255859e+01   6.6472656e+01
   6.7894531e+01   4.4789062e+01   6.6294922e+01
   6.8072266e+01   4.4789062e+01   6.6472656e+01
   6.8250000e+01   4.5144531e+01   6.6650391e+01
   6.8250000e+01   4.5322266e+01   6.6472656e+01
   6.8250000e+01   4.5144531e+01   6.6294922e+01
   6.8250000e+01   4.4966797e+01   6.6472656e+01
   6.7894531e+01   4.5500000e+01   6.6294922e+01
   6.8072266e+01   4.5500000e+01   6.6472656e+01
   6.8250000e+01   4.5144531e+01   6.7005859e+01
   6.8427734e+01   4.5144531e+01   6.3984375e+01
   6.8605469e+01   4.5500000e+01   6.4162109e+01
   6.8605469e+01   4.5500000e+01   6.4517578e+01
   6.8427734e+01   4.5500000e+01   6.4339844e+01
   6.8605469e+01   4.5322266e+01   6.4695312e+01
   6.8783203e+01   4.5144531e+01   6.4695312e+01
   6.8605469e+01   4.4966797e+01   6.4695312e+01
   6.8427734e+01   4.5144531e+01   6.4695312e+01
   6.8960938e+01   4.4611328e+01   6.5050781e+01
   6.8605469e+01   4.4789062e+01   6.4873047e+01
   6.8783203e+01   4.4789062e+01   6.5050781e+01
   6.8605469e+01   4.4789062e+01   6.5228516e+01
   6.8427734e+01   4.4789062e+01   6.5050781e+01
   6.8605469e+01   4.4611328e+01   6.5406250e+01
   6.8783203e+01   4.4433594e+01   6.5406250e+01
   6.9316406e+01   4.4789062e+01   6.5228516e+01
   6.9138672e+01   4.4789062e+01   6.5050781e+01
   6.9316406e+01   4.4611328e+01   6.5406250e+01
   6.9494141e+01   4.4433594e+01   6.5406250e+01
   6.9138672e+01   4.4433594e+01   6.5406250e+01
   6.8960938e+01   4.5144531e+01   6.5228516e+01
   6.8960938e+01   4.5322266e+01   6.5050781e+01
   6.8960938e+01   4.5144531e+01   6.4873047e+01
   6.8960938e+01   4.4966797e+01   6.5050781e+01
   6.8605469e+01   4.5500000e+01   6.4873047e+01
   6.8783203e+01   4.5500000e+01   6.5050781e+01
   6.8605469e+01   4.5500000e+01   6.5228516e+01
   6.8427734e+01   4.5500000e+01   6.5050781e+01
   6.8605469e+01   4.5322266e+01   6.5406250e+01
   6.8783203e+01   4.5144531e+01   6.5406250e+01
   6.8605469e+01   4.4966797e+01   6.5406250e+01
   6.8427734e+01   4.5144531e+01   6.5406250e+01
   6.9316406e+01   4.5500000e+01   6.5228516e+01
   6.9138672e+01   4.5500000e+01   6.5050781e+01
   6.9316406e+01   4.5322266e+01   6.5406250e+01
   6.9494141e+01   4.5144531e+01   6.5406250e+01
   6.9316406e+01   4.4966797e+01   6.5406250e+01
   6.9138672e+01   4.5144531e+01   6.5406250e+01
   6.9316406e+01   4.4078125e+01   6.5939453e+01
   6.8960938e+01   4.3900391e+01   6.6472656e+01
   6.8605469e+01   4.4078125e+01   6.6294922e+01
   6.8783203e+01   4.4078125e+01   6.6472656e+01
   6.8605469e+01   4.4078125e+01   6.6650391e+01
   6.8427734e+01   4.4078125e+01   6.6472656e+01
   6.8605469e+01   4.3900391e+01   6.6828125e+01
   6.8783203e+01   4.3722656e+01   6.6828125e+01
   6.9671875e+01   4.3722656e+01   6.6650391e+01
   6.9671875e+01   4.3900391e+01   6.6472656e+01
   6.9316406e+01   4.4078125e+01   6.6294922e+01
   6.9494141e+01   4.4078125e+01   6.6472656e+01
   6.9316406e+01   4.4078125e+01   6.6650391e+01
   6.9138672e+01   4.4078125e+01   6.6472656e+01
   6.9316406e+01   4.3900391e+01   6.6828125e+01
   6.9494141e+01   4.3722656e+01   6.6828125e+01
   6.9138672e+01   4.3722656e+01   6.6828125e+01
   7.0027344e+01   4.4078125e+01   6.5939453e+01
   6.9849609e+01   4.4078125e+01   6.5761719e+01
   7.0027344e+01   4.3900391e+01   6.6117188e+01
   7.0228061e+01   4.3780058e+01   6.6583480e+01
   7.0027344e+01   4.4078125e+01   6.6294922e+01
   7.0192951e+01   4.4081768e+01   6.6459504e+01
   7.0015217e+01   4.4081768e+01   6.6637238e+01
   6.9849609e+01   4.4078125e+01   6.6472656e+01
   6.9992957e+01   4.3926294e+01   6.6792713e+01
   7.0139193e+01   4.3780058e+01   6.6694187e+01
   6.9814975e+01   4.3688021e+01   6.6793490e+01
   6.8960938e+01   4.4433594e+01   6.5939453e+01
   6.8960938e+01   4.4611328e+01   6.5761719e+01
   6.8960938e+01   4.4433594e+01   6.5583984e+01
   6.8960938e+01   4.4255859e+01   6.5761719e+01
   6.8605469e+01   4.4789062e+01   6.5583984e+01
   6.8783203e+01   4.4789062e+01   6.5761719e+01
   6.8605469e+01   4.4789062e+01   6.5939453e+01
   6.8427734e+01   4.4789062e+01   6.5761719e+01
   6.8605469e+01   4.4611328e+01   6.6117188e+01
   6.8783203e+01   4.4433594e+01   6.6117188e+01
   6.8605469e+01   4.4255859e+01   6.6117188e+01
   6.8427734e+01   4.4433594e+01   6.6117188e+01
   6.9671875e+01   4.4433594e+01   6.5939453e+01
   6.9671875e+01   4.4611328e+01   6.5761719e+01
   6.9671875e+01   4.4433594e+01   6.5583984e+01
   6.9671875e+01   4.4255859e+01   6.5761719e+01
   6.9316406e+01   4.4789062e+01   6.5583984e+01
   6.9494141e+01   4.4789062e+01   6.5761719e+01
   6.9316406e+01   4.4789062e+01   6.5939453e+01
   6.9138672e+01   4.4789062e+01   6.5761719e+01
   6.9316406e+01   4.4611328e+01   6.6117188e+01
   6.9494141e+01   4.4433594e+01   6.6117188e+01
   6.9316406e+01   4.4255859e+01   6.6117188e+01
   6.9138672e+01   4.4433594e+01   6.6117188e+01
   6.8960938e+01   4.5144531e+01   6.5939453e+01
   6.8960938e+01   4.5322266e+01   6.5761719e+01
   6.8960938e+01   4.5144531e+01   6.5583984e+01
   6.8960938e+01   4.4966797e+01   6.5761719e+01
   6.8605469e+01   4.5500000e+01   6.5583984e+01
   6.8783203e+01   4.5500000e+01   6.5761719e+01
   6.8605469e+01   4.5500000e+01   6.5939453e+01
   6.8427734e+01   4.5500000e+01   6.5761719e+01
   6.8605469e+01   4.5322266e+01   6.6117188e+01
   6.8783203e+01   4.5144531e+01   6.6117188e+01
   6.8605469e+01   4.4966797e+01   6.6117188e+01
   6.8427734e+01   4.5144531e+01   6.6117188e+01
   6.9671875e+01   4.5144531e+01   6.5939453e+01
   6.9671875e+01   4.5322266e+01   6.5761719e+01
   6.9671875e+01   4.5144531e+01   6.5583984e+01
   6.9671875e+01   4.4966797e+01   6.5761719e+01
   6.9316406e+01   4.5500000e+01   6.5583984e+01
   6.9494141e+01   4.5500000e+01   6.5761719e+01
   6.9316406e+01   4.5500000e+01   6.5939453e+01
   6.9138672e+01   4.5500000e+01   6.5761719e+01
   6.9316406e+01   4.5322266e+01   6.6117188e+01
   6.9494141e+01   4.5144531e+01   6.6117188e+01
   6.9316406e+01   4.4966797e+01   6.6117188e+01
   6.9138672e+01   4.5144531e+01   6.6117188e+01
   6.8960938e+01   4.4433594e+01   6.6650391e+01
   6.8960938e+01   4.4611328e+01   6.6472656e+01
   6.8960938e+01   4.4433594e+01   6.6294922e+01
   6.8960938e+01   4.4255859e+01   6.6472656e+01
   6.8605469e+01   4.4789062e+01   6.6294922e+01
   6.8783203e+01   4.4789062e+01   6.6472656e+01
   6.8605469e+01   4.4789062e+01   6.6650391e+01
   6.8427734e+01   4.4789062e+01   6.6472656e+01
   6.8605469e+01   4.4611328e+01   6.6828125e+01
   6.8783203e+01   4.4433594e+01   6.6828125e+01
   6.8605469e+01   4.4255859e+01   6.6828125e+01
   6.8427734e+01   4.4433594e+01   6.6828125e+01
   6.9671875e+01   4.4433594e+01   6.6650391e+01
   6.9671875e+01   4.4611328e+01   6.6472656e+01
   6.9671875e+01   4.4433594e+01   6.6294922e+01
   6.9671875e+01   4.4255859e+01   6.6472656e+01
   6.9316406e+01   4.4789062e+01   6.6294922e+01
   6.9494141e+01   4.4789062e+01   6.6472656e+01
   6.9316406e+01   4.4789062e+01   6.6650391e+01
   6.9138672e+01   4.4789062e+01   6.6472656e+01
   6.9316406e+01   4.4611328e+01   6.6828125e+01
   6.9494141e+01   4.4433594e+01   6.6828125e+01
   6.9316406e+01   4.4255859e+01   6.6828125e+01
   6.9138672e+01   4.4433594e+01   6.6828125e+01
   6.8960938e+01   4.5144531e+01   6.6650391e+01
   6.8960938e+01   4.5322266e+01   6.6472656e+01
   6.8960938e+01   4.5144531e+01   6.6294922e+01
   6.8960938e+01   4.4966797e+01   6.6472656e+01
   6.8605469e+01   4.5500000e+01   6.6294922e+01
   6.8783203e+01   4.5500000e+01   6.6472656e+01
   6.8605469e+01   4.5500000e+01   6.6650391e+01
   6.8427734e+01   4.5500000e+01   6.6472656e+01
   6.8605469e+01   4.5322266e+01   6.6828125e+01
   6.8783203e+01   4.5144531e+01   6.6828125e+01
   6.8605469e+01   4.4966797e+01   6.6828125e+01
   6.8427734e+01   4.5144531e+01   6.6828125e+01
   6.9671875e+01   4.5144531e+01   6.6650391e+01
   6.9671875e+01   4.5322266e+01   6.6472656e+01
   6.9671875e+01   4.5144531e+01   6.6294922e+01
   6.9671875e+01   4.4966797e+01   6.6472656e+01
   6.9316406e+01   4.5500000e+01   6.6294922e+01
   6.9494141e+01   4.5500000e+01   6.6472656e+01
   6.9316406e+01   4.5500000e+01   6.6650391e+01
   6.9138672e+01   4.5500000e+01   6.6472656e+01
   6.9316406e+01   4.5322266e+01   6.6828125e+01
   6.9494141e+01   4.5144531e+01   6.6828125e+01
   6.9316406e+01   4.4966797e+01   6.6828125e+01
   6.9138672e+01   4.5144531e+01   6.6828125e+01
   7.0027344e+01   4.4789062e+01   6.5939453e+01
   6.9849609e+01   4.4789062e+01   6.5761719e+01
   7.0027344e+01   4.4611328e+01   6.6117188e+01
   7.0205078e+01   4.4433594e+01   6.6117188e+01
   7.0027344e+01   4.4255859e+01   6.6117188e+01
   6.9849609e+01   4.4433594e+01   6.6117188e+01
   7.0027344e+01   4.5322266e+01   6.6117188e+01
   7.0027344e+01   4.4966797e+01   6.6117188e+01
   6.9849609e+01   4.5144531e+01   6.6117188e+01
   7.0370686e+01   4.4437236e+01   6.6637238e+01
   7.0382812e+01   4.4611328e+01   6.6472656e+01
   7.0370686e+01   4.4259502e+01   6.6459504e+01
   7.0027344e+01   4.4789062e+01   6.6294922e+01
   7.0205078e+01   4.4789062e+01   6.6472656e+01
   7.0027344e+01   4.4789062e+01   6.6650391e+01
   6.9849609e+01   4.4789062e+01   6.6472656e+01
   7.0040004e+01   4.4612162e+01   6.6840449e+01
   7.0205611e+01   4.4438070e+01   6.6827297e+01
   7.0027877e+01   4.4260336e+01   6.6827297e+01
   6.9862270e+01   4.4434428e+01   6.6840449e+01
   7.0543109e+01   4.4677935e+01   6.6761520e+01
   7.0481812e+01   4.4503843e+01   6.6748367e+01
   7.0382812e+01   4.5144531e+01   6.6650391e+01
   7.0027344e+01   4.5500000e+01   6.6294922e+01
   7.0205078e+01   4.5500000e+01   6.6472656e+01
   7.0027344e+01   4.5500000e+01   6.6650391e+01
   6.9849609e+01   4.5500000e+01   6.6472656e+01
   7.0027344e+01   4.5322266e+01   6.6828125e+01
   7.0205078e+01   4.5144531e+01   6.6828125e+01
   7.0027344e+01   4.4966797e+01   6.6828125e+01
   6.9849609e+01   4.5144531e+01   6.6828125e+01
   7.0588766e+01   4.4877041e+01   6.6807174e+01
   7.0505193e+01   4.5089178e+01   6.6861639e+01
   6.8960938e+01   4.3722656e+01   6.7361328e+01
   6.8960938e+01   4.3900391e+01   6.7183594e+01
   6.8960938e+01   4.3722656e+01   6.7005859e+01
   6.8960938e+01   4.3544922e+01   6.7183594e+01
   6.8605469e+01   4.4078125e+01   6.7005859e+01
   6.8783203e+01   4.4078125e+01   6.7183594e+01
   6.9703848e+01   4.3799149e+01   6.7037832e+01
   6.9316406e+01   4.4078125e+01   6.7005859e+01
   6.9138672e+01   4.4078125e+01   6.7183594e+01
   6.8960938e+01   4.4433594e+01   6.7361328e+01
   6.8960938e+01   4.4611328e+01   6.7183594e+01
   6.8960938e+01   4.4433594e+01   6.7005859e+01
   6.8960938e+01   4.4255859e+01   6.7183594e+01
   6.8605469e+01   4.4789062e+01   6.7005859e+01
   6.8783203e+01   4.4789062e+01   6.7183594e+01
   6.8605469e+01   4.4789062e+01   6.7361328e+01
   6.8783203e+01   4.4433594e+01   6.7539062e+01
   6.9684535e+01   4.4612162e+01   6.7195918e+01
   6.9684535e+01   4.4434428e+01   6.7018184e+01
   6.9316406e+01   4.4789062e+01   6.7005859e+01
   6.9494141e+01   4.4789062e+01   6.7183594e+01
   6.9316406e+01   4.4789062e+01   6.7361328e+01
   6.9138672e+01   4.4789062e+01   6.7183594e+01
   6.9316406e+01   4.4611328e+01   6.7539062e+01
   6.9338783e+01   4.4188213e+01   6.7606709e+01
   6.9138672e+01   4.4433594e+01   6.7539062e+01
   6.8960938e+01   4.5144531e+01   6.7361328e+01
   6.8960938e+01   4.5322266e+01   6.7183594e+01
   6.8960938e+01   4.5144531e+01   6.7005859e+01
   6.8960938e+01   4.4966797e+01   6.7183594e+01
   6.8605469e+01   4.5500000e+01   6.7005859e+01
   6.8783203e+01   4.5500000e+01   6.7183594e+01
   6.8605469e+01   4.5500000e+01   6.7361328e+01
   6.8427734e+01   4.5500000e+01   6.7183594e+01
   6.8605469e+01   4.5322266e+01   6.7539062e+01
   6.8783203e+01   4.5144531e+01   6.7539062e+01
   6.9671875e+01   4.5144531e+01   6.7361328e+01
   6.9671875e+01   4.5322266e+01   6.7183594e+01
   6.9671875e+01   4.5144531e+01   6.7005859e+01
   6.9671875e+01   4.4966797e+01   6.7183594e+01
   6.9316406e+01   4.5500000e+01   6.7005859e+01
   6.9494141e+01   4.5500000e+01   6.7183594e+01
   6.9316406e+01   4.5500000e+01   6.7361328e+01
   6.9138672e+01   4.5500000e+01   6.7183594e+01
   6.9316406e+01   4.5322266e+01   6.7539062e+01
   6.9494141e+01   4.5144531e+01   6.7539062e+01
   6.9316406e+01   4.4966797e+01   6.7539062e+01
   6.9138672e+01   4.5144531e+01   6.7539062e+01
   6.8960938e+01   4.4433594e+01   6.7716797e+01
   6.9604229e+01   4.4590108e+01   6.7649150e+01
   6.9316406e+01   4.4789062e+01   6.7716797e+01
   6.9138672e+01   4.4789062e+01   6.7894531e+01
   6.8960938e+01   4.5322266e+01   6.7894531e+01
   6.8960938e+01   4.5144531e+01   6.7716797e+01
   6.8960938e+01   4.4966797e+01   6.7894531e+01
   6.9495029e+01   4.5165482e+01   6.7984287e+01
   6.9670986e+01   4.5212448e+01   6.7715908e+01
   6.9616521e+01   4.4911443e+01   6.7710613e+01
   6.9406162e+01   4.5165482e+01   6.8073154e+01
   7.0328865e+01   4.4678769e+01   6.7000748e+01
   7.0316738e+01   4.4504677e+01   6.6938426e+01
   7.0040004e+01   4.4789896e+01   6.7018184e+01
   6.9862270e+01   4.4789896e+01   6.7195918e+01
   6.9843793e+01   4.4679810e+01   6.7483740e+01
   6.9794623e+01   4.4590942e+01   6.7483740e+01
   7.0487756e+01   4.4800315e+01   6.6883900e+01
   7.0205967e+01   4.5165482e+01   6.7273350e+01
   7.0314896e+01   4.5234288e+01   6.7204545e+01
   7.0381924e+01   4.5212448e+01   6.7004971e+01
   7.0327459e+01   4.4911443e+01   6.6999676e+01
   7.0027344e+01   4.5500000e+01   6.7005859e+01
   6.9849609e+01   4.5500000e+01   6.7183594e+01
   6.9943771e+01   4.5356669e+01   6.7593527e+01
   7.0117100e+01   4.5165482e+01   6.7362217e+01
   6.9794256e+01   4.5089178e+01   6.7572576e+01
   7.0526145e+01   4.5534403e+01   6.7100021e+01
   6.9775779e+01   4.4801356e+01   6.7593797e+01
   6.9726609e+01   4.4801356e+01   6.7642967e+01
   6.6916992e+01   4.5944336e+01   6.4250977e+01
   6.6916992e+01   4.5766602e+01   6.4428711e+01
   6.7539062e+01   4.5855469e+01   6.4517578e+01
   6.7539062e+01   4.6033203e+01   6.4339844e+01
   6.7539062e+01   4.5855469e+01   6.4162109e+01
   6.7539062e+01   4.5677734e+01   6.4339844e+01
   6.7183594e+01   4.6210938e+01   6.4162109e+01
   6.7361328e+01   4.6210938e+01   6.4339844e+01
   6.7183594e+01   4.6210938e+01   6.4517578e+01
   6.7005859e+01   4.6210938e+01   6.4339844e+01
   6.7272461e+01   4.5766602e+01   6.4073242e+01
   6.7094727e+01   4.5944336e+01   6.4073242e+01
   6.7183594e+01   4.6033203e+01   6.4695312e+01
   6.7361328e+01   4.5855469e+01   6.4695312e+01
   6.7183594e+01   4.5677734e+01   6.4695312e+01
   6.7005859e+01   4.5855469e+01   6.4695312e+01
   6.8250000e+01   4.5855469e+01   6.4517578e+01
   6.8250000e+01   4.6033203e+01   6.4339844e+01
   6.8250000e+01   4.5855469e+01   6.4162109e+01
   6.8250000e+01   4.5677734e+01   6.4339844e+01
   6.7894531e+01   4.6210938e+01   6.4162109e+01
   6.8072266e+01   4.6210938e+01   6.4339844e+01
   6.7894531e+01   4.6210938e+01   6.4517578e+01
   6.7716797e+01   4.6210938e+01   6.4339844e+01
   6.7983398e+01   4.5944336e+01   6.4073242e+01
   6.7805664e+01   4.5766602e+01   6.4073242e+01
   6.7894531e+01   4.6033203e+01   6.4695312e+01
   6.8072266e+01   4.5855469e+01   6.4695312e+01
   6.7894531e+01   4.5677734e+01   6.4695312e+01
   6.7716797e+01   4.5855469e+01   6.4695312e+01
   6.6916992e+01   4.6655273e+01   6.4428711e+01
   6.6916992e+01   4.6477539e+01   6.4250977e+01
   6.7539062e+01   4.6566406e+01   6.4517578e+01
   6.7539062e+01   4.6744141e+01   6.4339844e+01
   6.7539062e+01   4.6566406e+01   6.4162109e+01
   6.7539062e+01   4.6388672e+01   6.4339844e+01
   6.7272461e+01   4.6833008e+01   6.4250977e+01
   6.7094727e+01   4.6833008e+01   6.4428711e+01
   6.7272461e+01   4.6655273e+01   6.4073242e+01
   6.7094727e+01   4.6477539e+01   6.4073242e+01
   6.7183594e+01   4.6744141e+01   6.4695312e+01
   6.7361328e+01   4.6566406e+01   6.4695312e+01
   6.7183594e+01   4.6388672e+01   6.4695312e+01
   6.7005859e+01   4.6566406e+01   6.4695312e+01
   6.8250000e+01   4.6566406e+01   6.4517578e+01
   6.8250000e+01   4.6744141e+01   6.4339844e+01
   6.8250000e+01   4.6566406e+01   6.4162109e+01
   6.8250000e+01   4.6388672e+01   6.4339844e+01
   6.7983398e+01   4.6833008e+01   6.4428711e+01
   6.7805664e+01   4.6833008e+01   6.4250977e+01
   6.7983398e+01   4.6477539e+01   6.4073242e+01
   6.7805664e+01   4.6655273e+01   6.4073242e+01
   6.7894531e+01   4.6744141e+01   6.4695312e+01
   6.8072266e+01   4.6566406e+01   6.4695312e+01
   6.7894531e+01   4.6388672e+01   6.4695312e+01
   6.7716797e+01   4.6566406e+01   6.4695312e+01
   6.6916992e+01   4.5944336e+01   6.5139648e+01
   6.6916992e+01   4.5766602e+01   6.4961914e+01
   6.7539062e+01   4.5855469e+01   6.5228516e+01
   6.7539062e+01   4.6033203e+01   6.5050781e+01
   6.7539062e+01   4.5855469e+01   6.4873047e+01
   6.7539062e+01   4.5677734e+01   6.5050781e+01
   6.7183594e+01   4.6210938e+01   6.4873047e+01
   6.7361328e+01   4.6210938e+01   6.5050781e+01
   6.7183594e+01   4.6210938e+01   6.5228516e+01
   6.7005859e+01   4.6210938e+01   6.5050781e+01
   6.7183594e+01   4.6033203e+01   6.5406250e+01
   6.7361328e+01   4.5855469e+01   6.5406250e+01
   6.7183594e+01   4.5677734e+01   6.5406250e+01
   6.7005859e+01   4.5855469e+01   6.5406250e+01
   6.8250000e+01   4.5855469e+01   6.5228516e+01
   6.8250000e+01   4.6033203e+01   6.5050781e+01
   6.8250000e+01   4.5855469e+01   6.4873047e+01
   6.8250000e+01   4.5677734e+01   6.5050781e+01
   6.7894531e+01   4.6210938e+01   6.4873047e+01
   6.8072266e+01   4.6210938e+01   6.5050781e+01
   6.7894531e+01   4.6210938e+01   6.5228516e+01
   6.7716797e+01   4.6210938e+01   6.5050781e+01
   6.7894531e+01   4.6033203e+01   6.5406250e+01
   6.8072266e+01   4.5855469e+01   6.5406250e+01
   6.7894531e+01   4.5677734e+01   6.5406250e+01
   6.7716797e+01   4.5855469e+01   6.5406250e+01
   6.6916992e+01   4.6655273e+01   6.4961914e+01
   6.6916992e+01   4.6477539e+01   6.5139648e+01
   6.7539062e+01   4.6566406e+01   6.5228516e+01
   6.7539062e+01   4.6744141e+01   6.5050781e+01
   6.7539062e+01   4.6566406e+01   6.4873047e+01
   6.7539062e+01   4.6388672e+01   6.5050781e+01
   6.7272461e+01   4.6833008e+01   6.5139648e+01
   6.7094727e+01   4.6833008e+01   6.4961914e+01
   6.7183594e+01   4.6744141e+01   6.5406250e+01
   6.7361328e+01   4.6566406e+01   6.5406250e+01
   6.7183594e+01   4.6388672e+01   6.5406250e+01
   6.7005859e+01   4.6566406e+01   6.5406250e+01
   6.8250000e+01   4.6566406e+01   6.5228516e+01
   6.8250000e+01   4.6744141e+01   6.5050781e+01
   6.8250000e+01   4.6566406e+01   6.4873047e+01
   6.8250000e+01   4.6388672e+01   6.5050781e+01
   6.7983398e+01   4.6833008e+01   6.4961914e+01
   6.7805664e+01   4.6833008e+01   6.5139648e+01
   6.7894531e+01   4.6744141e+01   6.5406250e+01
   6.8072266e+01   4.6566406e+01   6.5406250e+01
   6.7894531e+01   4.6388672e+01   6.5406250e+01
   6.7716797e+01   4.6566406e+01   6.5406250e+01
   6.7539062e+01   4.5855469e+01   6.5939453e+01
   6.7539062e+01   4.6033203e+01   6.5761719e+01
   6.7539062e+01   4.5855469e+01   6.5583984e+01
   6.7539062e+01   4.5677734e+01   6.5761719e+01
   6.7183594e+01   4.6210938e+01   6.5583984e+01
   6.7361328e+01   4.6210938e+01   6.5761719e+01
   6.8250000e+01   4.5855469e+01   6.5939453e+01
   6.8250000e+01   4.6033203e+01   6.5761719e+01
   6.8250000e+01   4.5855469e+01   6.5583984e+01
   6.8250000e+01   4.5677734e+01   6.5761719e+01
   6.7894531e+01   4.6210938e+01   6.5583984e+01
   6.8072266e+01   4.6210938e+01   6.5761719e+01
   6.7894531e+01   4.6210938e+01   6.5939453e+01
   6.7716797e+01   4.6210938e+01   6.5761719e+01
   6.7894531e+01   4.6033203e+01   6.6117188e+01
   6.8072266e+01   4.5855469e+01   6.6117188e+01
   6.7894531e+01   4.5677734e+01   6.6117188e+01
   6.7716797e+01   4.5855469e+01   6.6117188e+01
   6.7539062e+01   4.6566406e+01   6.5939453e+01
   6.7539062e+01   4.6566406e+01   6.5583984e+01
   6.7539062e+01   4.6388672e+01   6.5761719e+01
   6.8250000e+01   4.6566406e+01   6.5583984e+01
   6.8250000e+01   4.6388672e+01   6.5761719e+01
   6.7894531e+01   4.6388672e+01   6.6117188e+01
   6.8250000e+01   4.5855469e+01   6.6650391e+01
   6.8250000e+01   4.6033203e+01   6.6472656e+01
   6.8250000e+01   4.5855469e+01   6.6294922e+01
   6.8250000e+01   4.5677734e+01   6.6472656e+01
   6.7894531e+01   4.6210938e+01   6.6294922e+01
   6.8072266e+01   4.6210938e+01   6.6472656e+01
   6.7716797e+01   4.6210938e+01   6.6472656e+01
   6.8072266e+01   4.5855469e+01   6.6828125e+01
   6.8250000e+01   4.5855469e+01   6.7005859e+01
   6.8427734e+01   4.5855469e+01   6.3984375e+01
   6.8605469e+01   4.6210938e+01   6.4517578e+01
   6.8427734e+01   4.6210938e+01   6.4339844e+01
   6.8605469e+01   4.6033203e+01   6.4695312e+01
   6.8783203e+01   4.5855469e+01   6.4695312e+01
   6.8605469e+01   4.5677734e+01   6.4695312e+01
   6.8427734e+01   4.5855469e+01   6.4695312e+01
   6.8605469e+01   4.6921875e+01   6.4517578e+01
   6.8427734e+01   4.6921875e+01   6.4339844e+01
   6.8605469e+01   4.6744141e+01   6.4695312e+01
   6.8783203e+01   4.6566406e+01   6.4695312e+01
   6.8605469e+01   4.6388672e+01   6.4695312e+01
   6.8427734e+01   4.6566406e+01   6.4695312e+01
   6.8960938e+01   4.5855469e+01   6.5228516e+01
   6.8960938e+01   4.6033203e+01   6.5050781e+01
   6.8960938e+01   4.5855469e+01   6.4873047e+01
   6.8960938e+01   4.5677734e+01   6.5050781e+01
   6.8605469e+01   4.6210938e+01   6.4873047e+01
   6.8783203e+01   4.6210938e+01   6.5050781e+01
   6.8605469e+01   4.6210938e+01   6.5228516e+01
   6.8427734e+01   4.6210938e+01   6.5050781e+01
   6.8605469e+01   4.6033203e+01   6.5406250e+01
   6.8783203e+01   4.5855469e+01   6.5406250e+01
   6.8605469e+01   4.5677734e+01   6.5406250e+01
   6.8427734e+01   4.5855469e+01   6.5406250e+01
   6.9316406e+01   4.6033203e+01   6.5406250e+01
   6.9316406e+01   4.5677734e+01   6.5406250e+01
   6.9138672e+01   4.5855469e+01   6.5406250e+01
   6.8960938e+01   4.6566406e+01   6.5228516e+01
   6.8960938e+01   4.6744141e+01   6.5050781e+01
   6.8960938e+01   4.6388672e+01   6.5050781e+01
   6.8783203e+01   4.6566406e+01   6.5406250e+01
   6.8605469e+01   4.6388672e+01   6.5406250e+01
   6.8427734e+01   4.6566406e+01   6.5406250e+01
   6.9316406e+01   4.6388672e+01   6.5406250e+01
   6.9138672e+01   4.6566406e+01   6.5406250e+01
   6.8960938e+01   4.5855469e+01   6.5939453e+01
   6.8960938e+01   4.6033203e+01   6.5761719e+01
   6.8960938e+01   4.5855469e+01   6.5583984e+01
   6.8960938e+01   4.5677734e+01   6.5761719e+01
   6.8605469e+01   4.6210938e+01   6.5583984e+01
   6.8783203e+01   4.6210938e+01   6.5761719e+01
   6.8605469e+01   4.6210938e+01   6.5939453e+01
   6.8427734e+01   4.6210938e+01   6.5761719e+01
   6.8605469e+01   4.6033203e+01   6.6117188e+01
   6.8783203e+01   4.5855469e+01   6.6117188e+01
   6.8605469e+01   4.5677734e+01   6.6117188e+01
   6.8427734e+01   4.5855469e+01   6.6117188e+01
   6.9671875e+01   4.5855469e+01   6.5939453e+01
   6.9671875e+01   4.6033203e+01   6.5761719e+01
   6.9671875e+01   4.5677734e+01   6.5761719e+01
   6.9316406e+01   4.6210938e+01   6.5583984e+01
   6.9494141e+01   4.6210938e+01   6.5761719e+01
   6.9316406e+01   4.6210938e+01   6.5939453e+01
   6.9138672e+01   4.6210938e+01   6.5761719e+01
   6.9316406e+01   4.6033203e+01   6.6117188e+01
   6.9494141e+01   4.5855469e+01   6.6117188e+01
   6.9316406e+01   4.5677734e+01   6.6117188e+01
   6.9138672e+01   4.5855469e+01   6.6117188e+01
   6.8960938e+01   4.6388672e+01   6.5761719e+01
   6.8960938e+01   4.5855469e+01   6.6650391e+01
   6.8960938e+01   4.6033203e+01   6.6472656e+01
   6.8960938e+01   4.5855469e+01   6.6294922e+01
   6.8960938e+01   4.5677734e+01   6.6472656e+01
   6.8605469e+01   4.6210938e+01   6.6294922e+01
   6.8783203e+01   4.5855469e+01   6.6828125e+01
   6.8605469e+01   4.5677734e+01   6.6828125e+01
   6.8427734e+01   4.5855469e+01   6.6828125e+01
   6.9671875e+01   4.5855469e+01   6.6650391e+01
   6.9671875e+01   4.5855469e+01   6.6294922e+01
   6.9671875e+01   4.5677734e+01   6.6472656e+01
   6.9316406e+01   4.5677734e+01   6.6828125e+01
   6.9138672e+01   4.5855469e+01   6.6828125e+01
   6.9849609e+01   4.5855469e+01   6.6117188e+01
   7.0027344e+01   4.5677734e+01   6.6828125e+01
   6.8960938e+01   4.5677734e+01   6.7183594e+01
   7.0425150e+01   4.3938437e+01   6.6425102e+01
   7.0281818e+01   4.3904033e+01   6.6459504e+01
   6.9881582e+01   4.3799149e+01   6.6860098e+01
   7.0559658e+01   4.5212448e+01   6.6916104e+01
   6.9649615e+01   4.3922651e+01   6.7116813e+01
   6.9637240e+01   4.3688021e+01   6.6971225e+01
   6.9537201e+01   4.4163628e+01   6.7359867e+01
   6.9469555e+01   4.4053540e+01   6.7292221e+01
   6.9494141e+01   4.4078125e+01   6.7139072e+01
   6.9403064e+01   4.4074761e+01   6.7493256e+01
   6.9359467e+01   4.4163628e+01   6.7404389e+01
   6.9291820e+01   4.4053540e+01   6.7336742e+01
   6.9291820e+01   4.3875806e+01   6.7465307e+01
   6.9138672e+01   4.3722656e+01   6.7489893e+01
   7.0005617e+01   4.4104862e+01   6.6982771e+01
   6.9840010e+01   4.4101220e+01   6.7129137e+01
   6.9752182e+01   4.4455648e+01   6.7441299e+01
   6.9663314e+01   4.4455648e+01   6.7352432e+01
   6.9663314e+01   4.4277914e+01   6.7307910e+01
   6.9684535e+01   4.4256693e+01   6.7151396e+01
   6.9472920e+01   4.4454814e+01   6.7517842e+01
   6.9295186e+01   4.4277080e+01   6.7517842e+01
   6.9604229e+01   4.4678976e+01   6.7698320e+01
   6.9439676e+01   4.4843527e+01   6.7889236e+01
   6.9494141e+01   4.4789062e+01   6.7765967e+01
   6.9261941e+01   4.4843527e+01   6.8017801e+01
   6.9637473e+01   4.5267802e+01   6.7899826e+01
   6.9616521e+01   4.5089178e+01   6.7661443e+01
   6.9670986e+01   4.5123581e+01   6.7804775e+01
   6.9616521e+01   4.5000311e+01   6.7799480e+01
   6.9528543e+01   4.5021262e+01   6.7889236e+01
   6.9261941e+01   4.5021262e+01   6.8106668e+01
   6.9138672e+01   4.5144531e+01   6.8161133e+01
   7.0163273e+01   4.4844361e+01   6.7190623e+01
   7.0217738e+01   4.4789896e+01   6.7067354e+01
   6.9945842e+01   4.4755494e+01   6.7408055e+01
   6.9985539e+01   4.4844361e+01   6.7319187e+01
   7.0438586e+01   4.4800315e+01   6.6933070e+01
   7.0314896e+01   4.5323155e+01   6.7244242e+01
   7.0348410e+01   4.5356669e+01   6.7100021e+01
   7.0327459e+01   4.5089178e+01   6.6950506e+01
   7.0381924e+01   4.5123581e+01   6.7093838e+01
   7.0272994e+01   4.4965908e+01   6.7122945e+01
   7.0272994e+01   4.5054775e+01   6.7162643e+01
   7.0171564e+01   4.5466486e+01   6.7278645e+01
   7.0205078e+01   4.5500000e+01   6.7134424e+01
   6.9993830e+01   4.5466486e+01   6.7327814e+01
   7.0033527e+01   4.5377619e+01   6.7505549e+01
   6.9993830e+01   4.5288752e+01   6.7416682e+01
   6.9843426e+01   4.4911443e+01   6.7572576e+01
   6.9933182e+01   4.4932395e+01   6.7484598e+01
   6.9972879e+01   4.5021262e+01   6.7395730e+01
   6.9849609e+01   4.5144531e+01   6.7450195e+01
   6.9848721e+01   4.5212448e+01   6.7627041e+01
