   7.0205078e+01   4.4433594e+01   6.6117188e+01
   7.0027344e+01   4.4255859e+01   6.6117188e+01
   6.9849609e+01   4.4433594e+01   6.6117188e+01
   7.1093750e+01   4.4611328e+01   6.5761719e+01
   7.1093750e+01   4.4433594e+01   6.5583984e+01
   7.0738281e+01   4.4789062e+01   6.5583984e+01
   7.0916016e+01   4.4789062e+01   6.5761719e+01
   7.0738281e+01   4.4789062e+01   6.5939453e+01
   7.0560547e+01   4.4789062e+01   6.5761719e+01
   7.0738281e+01   4.4611328e+01   6.6117188e+01
   7.0560547e+01   4.4433594e+01   6.6117188e+01
   7.0382812e+01   4.5144531e+01   6.5939453e+01
   7.0382812e+01   4.5322266e+01   6.5761719e+01
   7.0382812e+01   4.5144531e+01   6.5583984e+01
   7.0382812e+01   4.4966797e+01   6.5761719e+01
   7.0027344e+01   4.5500000e+01   6.5583984e+01
   7.0205078e+01   4.5500000e+01   6.5761719e+01
   7.0027344e+01   4.5500000e+01   6.5939453e+01
   6.9849609e+01   4.5500000e+01   6.5761719e+01
   7.0027344e+01   4.5322266e+01   6.6117188e+01
   7.0205078e+01   4.5144531e+01   6.6117188e+01
   7.0027344e+01   4.4966797e+01   6.6117188e+01
   6.9849609e+01   4.5144531e+01   6.6117188e+01
   7.1093750e+01   4.5144531e+01   6.5939453e+01
   7.1093750e+01   4.5322266e+01   6.5761719e+01
   7.1093750e+01   4.5144531e+01   6.5583984e+01
   7.1093750e+01   4.4966797e+01   6.5761719e+01
   7.0738281e+01   4.5500000e+01   6.5583984e+01
   7.0916016e+01   4.5500000e+01   6.5761719e+01
   7.0738281e+01   4.5500000e+01   6.5939453e+01
   7.0560547e+01   4.5500000e+01   6.5761719e+01
   7.0738281e+01   4.5322266e+01   6.6117188e+01
   7.0916016e+01   4.5144531e+01   6.6117188e+01
   7.0738281e+01   4.4966797e+01   6.6117188e+01
   7.0560547e+01   4.5144531e+01   6.6117188e+01
   7.0382812e+01   4.4611328e+01   6.6472656e+01
   7.0382812e+01   4.4433594e+01   6.6294922e+01
   7.0027344e+01   4.4789062e+01   6.6294922e+01
   7.0205078e+01   4.4789062e+01   6.6472656e+01
   7.0027344e+01   4.4789062e+01   6.6650391e+01
   6.9849609e+01   4.4789062e+01   6.6472656e+01
   7.0738281e+01   4.4789062e+01   6.6294922e+01
   7.0560547e+01   4.4789062e+01   6.6472656e+01
   7.0382812e+01   4.5144531e+01   6.6650391e+01
   7.0382812e+01   4.5322266e+01   6.6472656e+01
   7.0382812e+01   4.5144531e+01   6.6294922e+01
   7.0382812e+01   4.4966797e+01   6.6472656e+01
   7.0027344e+01   4.5500000e+01   6.6294922e+01
   7.0205078e+01   4.5500000e+01   6.6472656e+01
   7.0027344e+01   4.5500000e+01   6.6650391e+01
   6.9849609e+01   4.5500000e+01   6.6472656e+01
   7.0027344e+01   4.5322266e+01   6.6828125e+01
   7.0205078e+01   4.5144531e+01   6.6828125e+01
   7.0027344e+01   4.4966797e+01   6.6828125e+01
   6.9849609e+01   4.5144531e+01   6.6828125e+01
   7.0971369e+01   4.5288752e+01   6.6567707e+01
   7.1092861e+01   4.5212448e+01   6.6294033e+01
   7.0738281e+01   4.5500000e+01   6.6294922e+01
   7.0560547e+01   4.5500000e+01   6.6472656e+01
   7.0710062e+01   4.5412022e+01   6.6849076e+01
   6.8605469e+01   4.4078125e+01   6.7005859e+01
   6.8783203e+01   4.4078125e+01   6.7183594e+01
   6.8605469e+01   4.4078125e+01   6.7361328e+01
   6.8427734e+01   4.4078125e+01   6.7183594e+01
   6.8960938e+01   4.4433594e+01   6.7361328e+01
   6.8960938e+01   4.4611328e+01   6.7183594e+01
   6.8960938e+01   4.4433594e+01   6.7005859e+01
   6.8960938e+01   4.4255859e+01   6.7183594e+01
   6.8605469e+01   4.4789062e+01   6.7005859e+01
   6.8783203e+01   4.4789062e+01   6.7183594e+01
   6.8605469e+01   4.4789062e+01   6.7361328e+01
   6.8427734e+01   4.4789062e+01   6.7183594e+01
   6.8605469e+01   4.4611328e+01   6.7539062e+01
   6.8783203e+01   4.4433594e+01   6.7539062e+01
   6.8605469e+01   4.4255859e+01   6.7539062e+01
   6.8427734e+01   4.4433594e+01   6.7539062e+01
   6.9316406e+01   4.4789062e+01   6.7005859e+01
   6.9494141e+01   4.4789062e+01   6.7183594e+01
   6.9316406e+01   4.4789062e+01   6.7361328e+01
   6.9138672e+01   4.4789062e+01   6.7183594e+01
   6.8960938e+01   4.5144531e+01   6.7361328e+01
   6.8960938e+01   4.5322266e+01   6.7183594e+01
   6.8960938e+01   4.5144531e+01   6.7005859e+01
   6.8960938e+01   4.4966797e+01   6.7183594e+01
   6.8605469e+01   4.5500000e+01   6.7005859e+01
   6.8783203e+01   4.5500000e+01   6.7183594e+01
   6.8605469e+01   4.5500000e+01   6.7361328e+01
   6.8427734e+01   4.5500000e+01   6.7183594e+01
   6.8605469e+01   4.5322266e+01   6.7539062e+01
   6.8783203e+01   4.5144531e+01   6.7539062e+01
   6.8605469e+01   4.4966797e+01   6.7539062e+01
   6.8427734e+01   4.5144531e+01   6.7539062e+01
   6.9671875e+01   4.5144531e+01   6.7361328e+01
   6.9671875e+01   4.5322266e+01   6.7183594e+01
   6.9671875e+01   4.5144531e+01   6.7005859e+01
   6.9671875e+01   4.4966797e+01   6.7183594e+01
   6.9316406e+01   4.5500000e+01   6.7005859e+01
   6.9494141e+01   4.5500000e+01   6.7183594e+01
   6.9316406e+01   4.5500000e+01   6.7361328e+01
   6.9138672e+01   4.5500000e+01   6.7183594e+01
   6.9316406e+01   4.5322266e+01   6.7539062e+01
   6.9494141e+01   4.5144531e+01   6.7539062e+01
   6.9316406e+01   4.4966797e+01   6.7539062e+01
   6.9138672e+01   4.5144531e+01   6.7539062e+01
   6.8605469e+01   4.4789062e+01   6.7716797e+01
   6.8783203e+01   4.4789062e+01   6.7894531e+01
   6.8605469e+01   4.4789062e+01   6.8072266e+01
   6.8427734e+01   4.4789062e+01   6.7894531e+01
   6.8960938e+01   4.5144531e+01   6.8072266e+01
   6.8960938e+01   4.5322266e+01   6.7894531e+01
   6.8960938e+01   4.5144531e+01   6.7716797e+01
   6.8960938e+01   4.4966797e+01   6.7894531e+01
   6.8605469e+01   4.5500000e+01   6.7716797e+01
   6.8783203e+01   4.5500000e+01   6.7894531e+01
   6.8605469e+01   4.5500000e+01   6.8072266e+01
   6.8427734e+01   4.5500000e+01   6.7894531e+01
   6.8605469e+01   4.5322266e+01   6.8250000e+01
   6.8783203e+01   4.5144531e+01   6.8250000e+01
   6.8605469e+01   4.4966797e+01   6.8250000e+01
   6.8427734e+01   4.5144531e+01   6.8250000e+01
   6.9316406e+01   4.5500000e+01   6.7716797e+01
   6.9138672e+01   4.5500000e+01   6.7894531e+01
   7.0381924e+01   4.5212448e+01   6.7004971e+01
   7.0027344e+01   4.5500000e+01   6.7005859e+01
   6.9849609e+01   4.5500000e+01   6.7183594e+01
   7.0654709e+01   4.5534403e+01   6.6971457e+01
   7.0526145e+01   4.5534403e+01   6.7100021e+01
   6.9919186e+01   4.5509818e+01   6.7657809e+01
   6.9790621e+01   4.5509818e+01   6.7786373e+01
   7.1460896e+01   4.4785419e+01   6.5597138e+01
   7.1271484e+01   4.4789062e+01   6.5761719e+01
   7.1627842e+01   4.5165482e+01   6.5851475e+01
   7.1736064e+01   4.5234993e+01   6.5781963e+01
   7.1781256e+01   4.5175996e+01   6.5562028e+01
   7.1673033e+01   4.5017618e+01   6.5720407e+01
   7.1449219e+01   4.5500000e+01   6.5583984e+01
   7.1271484e+01   4.5500000e+01   6.5761719e+01
   7.1365646e+01   4.5356669e+01   6.6171652e+01
   7.1538975e+01   4.5165482e+01   6.5940342e+01
   7.1216131e+01   4.5089178e+01   6.6150701e+01
   7.2044658e+01   4.5534174e+01   6.5535141e+01
   7.1934889e+01   4.5534174e+01   6.5662510e+01
   7.1365646e+01   4.5534403e+01   6.6260520e+01
   7.1237082e+01   4.5534403e+01   6.6389084e+01
   7.4038918e+01   4.5512374e+01   6.2619396e+01
   7.3994396e+01   4.5512374e+01   6.2688666e+01
   6.3628906e+01   4.0523438e+01   6.8427734e+01
   6.3984375e+01   4.1056641e+01   6.8605469e+01
   6.3984375e+01   4.0878906e+01   6.8427734e+01
   6.3628906e+01   4.1234375e+01   6.8427734e+01
   6.3806641e+01   4.1234375e+01   6.8605469e+01
   6.3628906e+01   4.1234375e+01   6.8783203e+01
   6.4339844e+01   4.1234375e+01   6.8427734e+01
   6.4162109e+01   4.1234375e+01   6.8605469e+01
   6.3273438e+01   4.1589844e+01   6.8427734e+01
   6.3984375e+01   4.1589844e+01   6.8783203e+01
   6.3984375e+01   4.1767578e+01   6.8605469e+01
   6.3984375e+01   4.1589844e+01   6.8427734e+01
   6.3984375e+01   4.1412109e+01   6.8605469e+01
   6.3628906e+01   4.1945312e+01   6.8427734e+01
   6.3806641e+01   4.1945312e+01   6.8605469e+01
   6.3628906e+01   4.1945312e+01   6.8783203e+01
   6.3451172e+01   4.1945312e+01   6.8605469e+01
   6.3628906e+01   4.1767578e+01   6.8960938e+01
   6.3806641e+01   4.1589844e+01   6.8960938e+01
   6.3273438e+01   4.2478516e+01   6.8605469e+01
   6.3273438e+01   4.2300781e+01   6.8427734e+01
   6.3273438e+01   4.2123047e+01   6.8605469e+01
   6.3984375e+01   4.2300781e+01   6.8783203e+01
   6.3984375e+01   4.2478516e+01   6.8605469e+01
   6.3984375e+01   4.2300781e+01   6.8427734e+01
   6.3984375e+01   4.2123047e+01   6.8605469e+01
   6.3628906e+01   4.2656250e+01   6.8427734e+01
   6.3806641e+01   4.2656250e+01   6.8605469e+01
   6.3628906e+01   4.2656250e+01   6.8783203e+01
   6.3451172e+01   4.2656250e+01   6.8605469e+01
   6.3628906e+01   4.2478516e+01   6.8960938e+01
   6.3806641e+01   4.2300781e+01   6.8960938e+01
   6.3628906e+01   4.2123047e+01   6.8960938e+01
   6.3984375e+01   4.1767578e+01   6.9316406e+01
   6.3984375e+01   4.1589844e+01   6.9138672e+01
   6.3806641e+01   4.1945312e+01   6.9316406e+01
   6.3984375e+01   4.2300781e+01   6.9494141e+01
   6.3984375e+01   4.2478516e+01   6.9316406e+01
   6.3984375e+01   4.2300781e+01   6.9138672e+01
   6.3984375e+01   4.2123047e+01   6.9316406e+01
   6.3628906e+01   4.2656250e+01   6.9138672e+01
   6.3806641e+01   4.2656250e+01   6.9316406e+01
   6.4695312e+01   4.1767578e+01   6.8605469e+01
   6.4695312e+01   4.1589844e+01   6.8427734e+01
   6.4339844e+01   4.1945312e+01   6.8427734e+01
   6.4517578e+01   4.1945312e+01   6.8605469e+01
   6.4339844e+01   4.1945312e+01   6.8783203e+01
   6.4162109e+01   4.1945312e+01   6.8605469e+01
   6.4339844e+01   4.1767578e+01   6.8960938e+01
   6.4162109e+01   4.1589844e+01   6.8960938e+01
   6.5050781e+01   4.1945312e+01   6.8427734e+01
   6.4873047e+01   4.1945312e+01   6.8605469e+01
   6.4695312e+01   4.2300781e+01   6.8783203e+01
   6.4695312e+01   4.2478516e+01   6.8605469e+01
   6.4695312e+01   4.2300781e+01   6.8427734e+01
   6.4695312e+01   4.2123047e+01   6.8605469e+01
   6.4339844e+01   4.2656250e+01   6.8427734e+01
   6.4517578e+01   4.2656250e+01   6.8605469e+01
   6.4339844e+01   4.2656250e+01   6.8783203e+01
   6.4162109e+01   4.2656250e+01   6.8605469e+01
   6.4339844e+01   4.2478516e+01   6.8960938e+01
   6.4517578e+01   4.2300781e+01   6.8960938e+01
   6.4339844e+01   4.2123047e+01   6.8960938e+01
   6.4162109e+01   4.2300781e+01   6.8960938e+01
   6.5406250e+01   4.2478516e+01   6.8605469e+01
   6.5406250e+01   4.2300781e+01   6.8427734e+01
   6.5050781e+01   4.2656250e+01   6.8427734e+01
   6.5228516e+01   4.2656250e+01   6.8605469e+01
   6.5050781e+01   4.2656250e+01   6.8783203e+01
   6.4873047e+01   4.2656250e+01   6.8605469e+01
   6.5050781e+01   4.2478516e+01   6.8960938e+01
   6.4873047e+01   4.2300781e+01   6.8960938e+01
   6.4339844e+01   4.1945312e+01   6.9138672e+01
   6.4162109e+01   4.1945312e+01   6.9316406e+01
   6.4695312e+01   4.2478516e+01   6.9316406e+01
   6.4695312e+01   4.2300781e+01   6.9138672e+01
   6.4339844e+01   4.2656250e+01   6.9138672e+01
   6.4517578e+01   4.2656250e+01   6.9316406e+01
   6.4339844e+01   4.2656250e+01   6.9494141e+01
   6.4162109e+01   4.2656250e+01   6.9316406e+01
   6.4339844e+01   4.2478516e+01   6.9671875e+01
   6.4162109e+01   4.2300781e+01   6.9671875e+01
   6.5050781e+01   4.2656250e+01   6.9138672e+01
   6.4873047e+01   4.2656250e+01   6.9316406e+01
   6.4339844e+01   4.2656250e+01   6.9849609e+01
   6.4162109e+01   4.2656250e+01   7.0027344e+01
   6.5761719e+01   4.2656250e+01   6.8427734e+01
   6.5583984e+01   4.2656250e+01   6.8605469e+01
   6.3273438e+01   4.3011719e+01   6.8783203e+01
   6.3273438e+01   4.3189453e+01   6.8605469e+01
   6.3273438e+01   4.3011719e+01   6.8427734e+01
   6.3273438e+01   4.2833984e+01   6.8605469e+01
   6.2917969e+01   4.3367188e+01   6.8427734e+01
   6.3095703e+01   4.3367188e+01   6.8605469e+01
   6.3984375e+01   4.3011719e+01   6.8783203e+01
   6.3984375e+01   4.3189453e+01   6.8605469e+01
   6.3984375e+01   4.3011719e+01   6.8427734e+01
   6.3984375e+01   4.2833984e+01   6.8605469e+01
   6.3628906e+01   4.3367188e+01   6.8427734e+01
   6.3806641e+01   4.3367188e+01   6.8605469e+01
   6.3628906e+01   4.3367188e+01   6.8783203e+01
   6.3451172e+01   4.3367188e+01   6.8605469e+01
   6.3628906e+01   4.3189453e+01   6.8960938e+01
   6.3806641e+01   4.3011719e+01   6.8960938e+01
   6.3628906e+01   4.2833984e+01   6.8960938e+01
   6.3451172e+01   4.3011719e+01   6.8960938e+01
   6.3273438e+01   4.3722656e+01   6.8783203e+01
   6.3273438e+01   4.3900391e+01   6.8605469e+01
   6.3273438e+01   4.3722656e+01   6.8427734e+01
   6.3273438e+01   4.3544922e+01   6.8605469e+01
   6.3095703e+01   4.4078125e+01   6.8605469e+01
   6.3984375e+01   4.3722656e+01   6.8783203e+01
   6.3984375e+01   4.3900391e+01   6.8605469e+01
   6.3984375e+01   4.3722656e+01   6.8427734e+01
   6.3984375e+01   4.3544922e+01   6.8605469e+01
   6.3628906e+01   4.4078125e+01   6.8427734e+01
   6.3806641e+01   4.4078125e+01   6.8605469e+01
   6.3628906e+01   4.4078125e+01   6.8783203e+01
   6.3451172e+01   4.4078125e+01   6.8605469e+01
   6.3628906e+01   4.3900391e+01   6.8960938e+01
   6.3806641e+01   4.3722656e+01   6.8960938e+01
   6.3628906e+01   4.3544922e+01   6.8960938e+01
   6.3451172e+01   4.3722656e+01   6.8960938e+01
   6.3984375e+01   4.3011719e+01   6.9494141e+01
   6.3984375e+01   4.3189453e+01   6.9316406e+01
   6.3984375e+01   4.3011719e+01   6.9138672e+01
   6.3984375e+01   4.2833984e+01   6.9316406e+01
   6.3628906e+01   4.3367188e+01   6.9138672e+01
   6.3806641e+01   4.3367188e+01   6.9316406e+01
   6.3628906e+01   4.3367188e+01   6.9494141e+01
   6.3451172e+01   4.3367188e+01   6.9316406e+01
   6.3806641e+01   4.3011719e+01   6.9671875e+01
   6.3273438e+01   4.3722656e+01   6.9138672e+01
   6.3984375e+01   4.3722656e+01   6.9494141e+01
   6.3984375e+01   4.3900391e+01   6.9316406e+01
   6.3984375e+01   4.3722656e+01   6.9138672e+01
   6.3984375e+01   4.3544922e+01   6.9316406e+01
   6.3628906e+01   4.4078125e+01   6.9138672e+01
   6.3806641e+01   4.4078125e+01   6.9316406e+01
   6.3628906e+01   4.4078125e+01   6.9494141e+01
   6.3451172e+01   4.4078125e+01   6.9316406e+01
   6.3628906e+01   4.3900391e+01   6.9671875e+01
   6.3806641e+01   4.3722656e+01   6.9671875e+01
   6.4695312e+01   4.3011719e+01   6.8783203e+01
   6.4695312e+01   4.3189453e+01   6.8605469e+01
   6.4695312e+01   4.3011719e+01   6.8427734e+01
   6.4695312e+01   4.2833984e+01   6.8605469e+01
   6.4339844e+01   4.3367188e+01   6.8427734e+01
   6.4517578e+01   4.3367188e+01   6.8605469e+01
   6.4339844e+01   4.3367188e+01   6.8783203e+01
   6.4162109e+01   4.3367188e+01   6.8605469e+01
   6.4339844e+01   4.3189453e+01   6.8960938e+01
   6.4517578e+01   4.3011719e+01   6.8960938e+01
   6.4339844e+01   4.2833984e+01   6.8960938e+01
   6.4162109e+01   4.3011719e+01   6.8960938e+01
   6.5406250e+01   4.3011719e+01   6.8783203e+01
   6.5406250e+01   4.3189453e+01   6.8605469e+01
   6.5406250e+01   4.3011719e+01   6.8427734e+01
   6.5406250e+01   4.2833984e+01   6.8605469e+01
   6.5050781e+01   4.3367188e+01   6.8427734e+01
   6.5228516e+01   4.3367188e+01   6.8605469e+01
   6.5050781e+01   4.3367188e+01   6.8783203e+01
   6.4873047e+01   4.3367188e+01   6.8605469e+01
   6.5050781e+01   4.3189453e+01   6.8960938e+01
   6.5228516e+01   4.3011719e+01   6.8960938e+01
   6.5050781e+01   4.2833984e+01   6.8960938e+01
   6.4873047e+01   4.3011719e+01   6.8960938e+01
   6.4695312e+01   4.3722656e+01   6.8783203e+01
   6.4695312e+01   4.3900391e+01   6.8605469e+01
   6.4695312e+01   4.3722656e+01   6.8427734e+01
   6.4695312e+01   4.3544922e+01   6.8605469e+01
   6.4339844e+01   4.4078125e+01   6.8427734e+01
   6.4517578e+01   4.4078125e+01   6.8605469e+01
   6.4339844e+01   4.4078125e+01   6.8783203e+01
   6.4162109e+01   4.4078125e+01   6.8605469e+01
   6.4339844e+01   4.3900391e+01   6.8960938e+01
   6.4517578e+01   4.3722656e+01   6.8960938e+01
   6.4339844e+01   4.3544922e+01   6.8960938e+01
   6.4162109e+01   4.3722656e+01   6.8960938e+01
   6.5406250e+01   4.3722656e+01   6.8783203e+01
   6.5406250e+01   4.3900391e+01   6.8605469e+01
   6.5406250e+01   4.3722656e+01   6.8427734e+01
   6.5406250e+01   4.3544922e+01   6.8605469e+01
   6.5050781e+01   4.4078125e+01   6.8427734e+01
   6.5228516e+01   4.4078125e+01   6.8605469e+01
   6.5050781e+01   4.4078125e+01   6.8783203e+01
   6.4873047e+01   4.4078125e+01   6.8605469e+01
   6.5050781e+01   4.3900391e+01   6.8960938e+01
   6.5228516e+01   4.3722656e+01   6.8960938e+01
   6.5050781e+01   4.3544922e+01   6.8960938e+01
   6.4873047e+01   4.3722656e+01   6.8960938e+01
   6.4695312e+01   4.3011719e+01   6.9494141e+01
   6.4695312e+01   4.3189453e+01   6.9316406e+01
   6.4695312e+01   4.3011719e+01   6.9138672e+01
   6.4695312e+01   4.2833984e+01   6.9316406e+01
   6.4339844e+01   4.3367188e+01   6.9138672e+01
   6.4517578e+01   4.3367188e+01   6.9316406e+01
   6.4339844e+01   4.3367188e+01   6.9494141e+01
   6.4162109e+01   4.3367188e+01   6.9316406e+01
   6.4339844e+01   4.3189453e+01   6.9671875e+01
   6.4517578e+01   4.3011719e+01   6.9671875e+01
   6.4339844e+01   4.2833984e+01   6.9671875e+01
   6.4162109e+01   4.3011719e+01   6.9671875e+01
   6.5406250e+01   4.3189453e+01   6.9316406e+01
   6.5406250e+01   4.3011719e+01   6.9138672e+01
   6.5050781e+01   4.3367188e+01   6.9138672e+01
   6.5228516e+01   4.3367188e+01   6.9316406e+01
   6.5050781e+01   4.3367188e+01   6.9494141e+01
   6.4873047e+01   4.3367188e+01   6.9316406e+01
   6.5050781e+01   4.3189453e+01   6.9671875e+01
   6.4873047e+01   4.3011719e+01   6.9671875e+01
   6.4695312e+01   4.3722656e+01   6.9494141e+01
   6.4695312e+01   4.3900391e+01   6.9316406e+01
   6.4695312e+01   4.3722656e+01   6.9138672e+01
   6.4695312e+01   4.3544922e+01   6.9316406e+01
   6.4339844e+01   4.4078125e+01   6.9138672e+01
   6.4517578e+01   4.4078125e+01   6.9316406e+01
   6.4339844e+01   4.4078125e+01   6.9494141e+01
   6.4162109e+01   4.4078125e+01   6.9316406e+01
   6.4339844e+01   4.3900391e+01   6.9671875e+01
   6.4517578e+01   4.3722656e+01   6.9671875e+01
   6.4339844e+01   4.3544922e+01   6.9671875e+01
   6.4162109e+01   4.3722656e+01   6.9671875e+01
   6.5406250e+01   4.3722656e+01   6.9494141e+01
   6.5406250e+01   4.3900391e+01   6.9316406e+01
   6.5406250e+01   4.3722656e+01   6.9138672e+01
   6.5406250e+01   4.3544922e+01   6.9316406e+01
   6.5050781e+01   4.4078125e+01   6.9138672e+01
   6.5228516e+01   4.4078125e+01   6.9316406e+01
   6.5050781e+01   4.4078125e+01   6.9494141e+01
   6.4873047e+01   4.4078125e+01   6.9316406e+01
   6.5050781e+01   4.3900391e+01   6.9671875e+01
   6.5228516e+01   4.3722656e+01   6.9671875e+01
   6.5050781e+01   4.3544922e+01   6.9671875e+01
   6.4873047e+01   4.3722656e+01   6.9671875e+01
   6.3273438e+01   4.4433594e+01   6.8783203e+01
   6.3273438e+01   4.4255859e+01   6.8605469e+01
   6.3095703e+01   4.4433594e+01   6.8960938e+01
   6.3984375e+01   4.4433594e+01   6.8783203e+01
   6.3984375e+01   4.4611328e+01   6.8605469e+01
   6.3984375e+01   4.4433594e+01   6.8427734e+01
   6.3984375e+01   4.4255859e+01   6.8605469e+01
   6.3806641e+01   4.4789062e+01   6.8605469e+01
   6.3628906e+01   4.4789062e+01   6.8783203e+01
   6.3628906e+01   4.4611328e+01   6.8960938e+01
   6.3806641e+01   4.4433594e+01   6.8960938e+01
   6.3628906e+01   4.4255859e+01   6.8960938e+01
   6.3451172e+01   4.4433594e+01   6.8960938e+01
   6.3984375e+01   4.5144531e+01   6.8783203e+01
   6.3984375e+01   4.4966797e+01   6.8605469e+01
   6.3806641e+01   4.5144531e+01   6.8960938e+01
   6.3628906e+01   4.4966797e+01   6.8960938e+01
   6.3273438e+01   4.4611328e+01   6.9316406e+01
   6.3273438e+01   4.4433594e+01   6.9138672e+01
   6.3273438e+01   4.4255859e+01   6.9316406e+01
   6.3984375e+01   4.4433594e+01   6.9494141e+01
   6.3984375e+01   4.4611328e+01   6.9316406e+01
   6.3984375e+01   4.4433594e+01   6.9138672e+01
   6.3984375e+01   4.4255859e+01   6.9316406e+01
   6.3628906e+01   4.4789062e+01   6.9138672e+01
   6.3806641e+01   4.4789062e+01   6.9316406e+01
   6.3628906e+01   4.4789062e+01   6.9494141e+01
   6.3451172e+01   4.4789062e+01   6.9316406e+01
   6.3628906e+01   4.4611328e+01   6.9671875e+01
   6.3806641e+01   4.4433594e+01   6.9671875e+01
   6.3628906e+01   4.4255859e+01   6.9671875e+01
   6.3451172e+01   4.4433594e+01   6.9671875e+01
   6.3273438e+01   4.5144531e+01   6.9494141e+01
   6.3273438e+01   4.4966797e+01   6.9316406e+01
   6.3984375e+01   4.5144531e+01   6.9494141e+01
   6.3984375e+01   4.5322266e+01   6.9316406e+01
   6.3984375e+01   4.5144531e+01   6.9138672e+01
   6.3984375e+01   4.4966797e+01   6.9316406e+01
   6.3806641e+01   4.5500000e+01   6.9316406e+01
   6.3628906e+01   4.5500000e+01   6.9494141e+01
   6.3628906e+01   4.5322266e+01   6.9671875e+01
   6.3806641e+01   4.5144531e+01   6.9671875e+01
   6.3628906e+01   4.4966797e+01   6.9671875e+01
   6.3451172e+01   4.5144531e+01   6.9671875e+01
   6.4695312e+01   4.4433594e+01   6.8783203e+01
   6.4695312e+01   4.4611328e+01   6.8605469e+01
   6.4695312e+01   4.4433594e+01   6.8427734e+01
   6.4695312e+01   4.4255859e+01   6.8605469e+01
   6.4339844e+01   4.4789062e+01   6.8427734e+01
   6.4517578e+01   4.4789062e+01   6.8605469e+01
   6.4339844e+01   4.4789062e+01   6.8783203e+01
   6.4162109e+01   4.4789062e+01   6.8605469e+01
   6.4339844e+01   4.4611328e+01   6.8960938e+01
   6.4517578e+01   4.4433594e+01   6.8960938e+01
   6.4339844e+01   4.4255859e+01   6.8960938e+01
   6.4162109e+01   4.4433594e+01   6.8960938e+01
   6.5406250e+01   4.4433594e+01   6.8783203e+01
   6.5406250e+01   4.4611328e+01   6.8605469e+01
   6.5406250e+01   4.4433594e+01   6.8427734e+01
   6.5406250e+01   4.4255859e+01   6.8605469e+01
   6.5050781e+01   4.4789062e+01   6.8427734e+01
   6.5228516e+01   4.4789062e+01   6.8605469e+01
   6.5050781e+01   4.4789062e+01   6.8783203e+01
   6.4873047e+01   4.4789062e+01   6.8605469e+01
   6.5050781e+01   4.4611328e+01   6.8960938e+01
   6.5228516e+01   4.4433594e+01   6.8960938e+01
   6.5050781e+01   4.4255859e+01   6.8960938e+01
   6.4873047e+01   4.4433594e+01   6.8960938e+01
   6.4695312e+01   4.5144531e+01   6.8783203e+01
   6.4695312e+01   4.5322266e+01   6.8605469e+01
   6.4695312e+01   4.5144531e+01   6.8427734e+01
   6.4695312e+01   4.4966797e+01   6.8605469e+01
   6.4517578e+01   4.5500000e+01   6.8605469e+01
   6.4339844e+01   4.5500000e+01   6.8783203e+01
   6.4339844e+01   4.5322266e+01   6.8960938e+01
   6.4517578e+01   4.5144531e+01   6.8960938e+01
   6.4339844e+01   4.4966797e+01   6.8960938e+01
   6.4162109e+01   4.5144531e+01   6.8960938e+01
   6.5406250e+01   4.5144531e+01   6.8783203e+01
   6.5406250e+01   4.5322266e+01   6.8605469e+01
   6.5406250e+01   4.5144531e+01   6.8427734e+01
   6.5406250e+01   4.4966797e+01   6.8605469e+01
   6.5050781e+01   4.5500000e+01   6.8427734e+01
   6.5228516e+01   4.5500000e+01   6.8605469e+01
   6.5050781e+01   4.5500000e+01   6.8783203e+01
   6.4873047e+01   4.5500000e+01   6.8605469e+01
   6.5050781e+01   4.5322266e+01   6.8960938e+01
   6.5228516e+01   4.5144531e+01   6.8960938e+01
   6.5050781e+01   4.4966797e+01   6.8960938e+01
   6.4873047e+01   4.5144531e+01   6.8960938e+01
   6.4695312e+01   4.4433594e+01   6.9494141e+01
   6.4695312e+01   4.4611328e+01   6.9316406e+01
   6.4695312e+01   4.4433594e+01   6.9138672e+01
   6.4695312e+01   4.4255859e+01   6.9316406e+01
   6.4339844e+01   4.4789062e+01   6.9138672e+01
   6.4517578e+01   4.4789062e+01   6.9316406e+01
   6.4339844e+01   4.4789062e+01   6.9494141e+01
   6.4162109e+01   4.4789062e+01   6.9316406e+01
   6.4339844e+01   4.4611328e+01   6.9671875e+01
   6.4517578e+01   4.4433594e+01   6.9671875e+01
   6.4339844e+01   4.4255859e+01   6.9671875e+01
   6.4162109e+01   4.4433594e+01   6.9671875e+01
   6.5406250e+01   4.4433594e+01   6.9494141e+01
   6.5406250e+01   4.4611328e+01   6.9316406e+01
   6.5406250e+01   4.4433594e+01   6.9138672e+01
   6.5406250e+01   4.4255859e+01   6.9316406e+01
   6.5050781e+01   4.4789062e+01   6.9138672e+01
   6.5228516e+01   4.4789062e+01   6.9316406e+01
   6.5050781e+01   4.4789062e+01   6.9494141e+01
   6.4873047e+01   4.4789062e+01   6.9316406e+01
   6.5050781e+01   4.4611328e+01   6.9671875e+01
   6.5228516e+01   4.4433594e+01   6.9671875e+01
   6.5050781e+01   4.4255859e+01   6.9671875e+01
   6.4873047e+01   4.4433594e+01   6.9671875e+01
   6.4695312e+01   4.5144531e+01   6.9494141e+01
   6.4695312e+01   4.5322266e+01   6.9316406e+01
   6.4695312e+01   4.5144531e+01   6.9138672e+01
   6.4695312e+01   4.4966797e+01   6.9316406e+01
   6.4339844e+01   4.5500000e+01   6.9138672e+01
   6.4517578e+01   4.5500000e+01   6.9316406e+01
   6.4339844e+01   4.5500000e+01   6.9494141e+01
   6.4162109e+01   4.5500000e+01   6.9316406e+01
   6.4339844e+01   4.5322266e+01   6.9671875e+01
   6.4517578e+01   4.5144531e+01   6.9671875e+01
   6.4339844e+01   4.4966797e+01   6.9671875e+01
   6.4162109e+01   4.5144531e+01   6.9671875e+01
   6.5406250e+01   4.5144531e+01   6.9494141e+01
   6.5406250e+01   4.5322266e+01   6.9316406e+01
   6.5406250e+01   4.5144531e+01   6.9138672e+01
   6.5406250e+01   4.4966797e+01   6.9316406e+01
   6.5050781e+01   4.5500000e+01   6.9138672e+01
   6.5228516e+01   4.5500000e+01   6.9316406e+01
   6.5050781e+01   4.5500000e+01   6.9494141e+01
   6.4873047e+01   4.5500000e+01   6.9316406e+01
   6.5050781e+01   4.5322266e+01   6.9671875e+01
   6.5228516e+01   4.5144531e+01   6.9671875e+01
   6.5050781e+01   4.4966797e+01   6.9671875e+01
   6.4873047e+01   4.5144531e+01   6.9671875e+01
   6.3984375e+01   4.3189453e+01   7.0027344e+01
   6.3984375e+01   4.3011719e+01   6.9849609e+01
   6.3984375e+01   4.3722656e+01   7.0205078e+01
   6.3984375e+01   4.3900391e+01   7.0027344e+01
   6.3984375e+01   4.3722656e+01   6.9849609e+01
   6.3984375e+01   4.3544922e+01   7.0027344e+01
   6.3806641e+01   4.4078125e+01   7.0027344e+01
   6.4695312e+01   4.3189453e+01   7.0027344e+01
   6.4695312e+01   4.3011719e+01   6.9849609e+01
   6.4339844e+01   4.3367188e+01   6.9849609e+01
   6.4517578e+01   4.3367188e+01   7.0027344e+01
   6.4339844e+01   4.3367188e+01   7.0205078e+01
   6.4162109e+01   4.3367188e+01   7.0027344e+01
   6.4339844e+01   4.3189453e+01   7.0382812e+01
   6.5050781e+01   4.3367188e+01   6.9849609e+01
   6.4873047e+01   4.3367188e+01   7.0027344e+01
   6.4695312e+01   4.3722656e+01   7.0205078e+01
   6.4695312e+01   4.3900391e+01   7.0027344e+01
   6.4695312e+01   4.3722656e+01   6.9849609e+01
   6.4695312e+01   4.3544922e+01   7.0027344e+01
   6.4339844e+01   4.4078125e+01   6.9849609e+01
   6.4517578e+01   4.4078125e+01   7.0027344e+01
   6.4339844e+01   4.4078125e+01   7.0205078e+01
   6.4162109e+01   4.4078125e+01   7.0027344e+01
   6.4339844e+01   4.3900391e+01   7.0382812e+01
   6.4517578e+01   4.3722656e+01   7.0382812e+01
   6.4339844e+01   4.3544922e+01   7.0382812e+01
   6.4162109e+01   4.3722656e+01   7.0382812e+01
   6.5406250e+01   4.3900391e+01   7.0027344e+01
   6.5406250e+01   4.3722656e+01   6.9849609e+01
   6.5050781e+01   4.4078125e+01   6.9849609e+01
   6.5228516e+01   4.4078125e+01   7.0027344e+01
   6.5050781e+01   4.4078125e+01   7.0205078e+01
   6.4873047e+01   4.4078125e+01   7.0027344e+01
   6.5050781e+01   4.3900391e+01   7.0382812e+01
   6.4873047e+01   4.3722656e+01   7.0382812e+01
   6.4339844e+01   4.3367188e+01   7.0560547e+01
   6.4695312e+01   4.3900391e+01   7.0738281e+01
   6.4695312e+01   4.3722656e+01   7.0560547e+01
   6.4339844e+01   4.4078125e+01   7.0560547e+01
   6.4517578e+01   4.4078125e+01   7.0738281e+01
   6.5050781e+01   4.4078125e+01   7.0560547e+01
   6.4873047e+01   4.4078125e+01   7.0738281e+01
   6.3984375e+01   4.4433594e+01   7.0205078e+01
   6.3984375e+01   4.4611328e+01   7.0027344e+01
   6.3984375e+01   4.4433594e+01   6.9849609e+01
   6.3984375e+01   4.4255859e+01   7.0027344e+01
   6.3628906e+01   4.4789062e+01   6.9849609e+01
   6.3806641e+01   4.4789062e+01   7.0027344e+01
   6.3984375e+01   4.5144531e+01   7.0205078e+01
   6.3984375e+01   4.5322266e+01   7.0027344e+01
   6.3984375e+01   4.5144531e+01   6.9849609e+01
   6.3984375e+01   4.4966797e+01   7.0027344e+01
   6.3628906e+01   4.5500000e+01   6.9849609e+01
   6.3806641e+01   4.5500000e+01   7.0027344e+01
   6.3628906e+01   4.5500000e+01   7.0205078e+01
   6.3451172e+01   4.5500000e+01   7.0027344e+01
   6.3806641e+01   4.5144531e+01   7.0382812e+01
   6.3984375e+01   4.5322266e+01   7.0738281e+01
   6.3984375e+01   4.5144531e+01   7.0560547e+01
   6.4695312e+01   4.4433594e+01   7.0205078e+01
   6.4695312e+01   4.4611328e+01   7.0027344e+01
   6.4695312e+01   4.4433594e+01   6.9849609e+01
   6.4695312e+01   4.4255859e+01   7.0027344e+01
   6.4339844e+01   4.4789062e+01   6.9849609e+01
   6.4517578e+01   4.4789062e+01   7.0027344e+01
   6.4339844e+01   4.4789062e+01   7.0205078e+01
   6.4162109e+01   4.4789062e+01   7.0027344e+01
   6.4339844e+01   4.4611328e+01   7.0382812e+01
   6.4517578e+01   4.4433594e+01   7.0382812e+01
   6.4339844e+01   4.4255859e+01   7.0382812e+01
   6.4162109e+01   4.4433594e+01   7.0382812e+01
   6.5406250e+01   4.4433594e+01   7.0205078e+01
   6.5406250e+01   4.4611328e+01   7.0027344e+01
   6.5406250e+01   4.4433594e+01   6.9849609e+01
   6.5406250e+01   4.4255859e+01   7.0027344e+01
   6.5050781e+01   4.4789062e+01   6.9849609e+01
   6.5228516e+01   4.4789062e+01   7.0027344e+01
   6.5050781e+01   4.4789062e+01   7.0205078e+01
   6.4873047e+01   4.4789062e+01   7.0027344e+01
   6.5050781e+01   4.4611328e+01   7.0382812e+01
   6.5228516e+01   4.4433594e+01   7.0382812e+01
   6.5050781e+01   4.4255859e+01   7.0382812e+01
   6.4873047e+01   4.4433594e+01   7.0382812e+01
   6.4695312e+01   4.5144531e+01   7.0205078e+01
   6.4695312e+01   4.5322266e+01   7.0027344e+01
   6.4695312e+01   4.5144531e+01   6.9849609e+01
   6.4695312e+01   4.4966797e+01   7.0027344e+01
   6.4339844e+01   4.5500000e+01   6.9849609e+01
   6.4517578e+01   4.5500000e+01   7.0027344e+01
   6.4339844e+01   4.5500000e+01   7.0205078e+01
   6.4162109e+01   4.5500000e+01   7.0027344e+01
   6.4339844e+01   4.5322266e+01   7.0382812e+01
   6.4517578e+01   4.5144531e+01   7.0382812e+01
   6.4339844e+01   4.4966797e+01   7.0382812e+01
   6.4162109e+01   4.5144531e+01   7.0382812e+01
   6.5406250e+01   4.5144531e+01   7.0205078e+01
   6.5406250e+01   4.5322266e+01   7.0027344e+01
   6.5406250e+01   4.5144531e+01   6.9849609e+01
   6.5406250e+01   4.4966797e+01   7.0027344e+01
   6.5050781e+01   4.5500000e+01   6.9849609e+01
   6.5228516e+01   4.5500000e+01   7.0027344e+01
   6.5050781e+01   4.5500000e+01   7.0205078e+01
   6.4873047e+01   4.5500000e+01   7.0027344e+01
   6.5050781e+01   4.5322266e+01   7.0382812e+01
   6.5228516e+01   4.5144531e+01   7.0382812e+01
   6.5050781e+01   4.4966797e+01   7.0382812e+01
   6.4873047e+01   4.5144531e+01   7.0382812e+01
   6.4695312e+01   4.4433594e+01   7.0916016e+01
   6.4695312e+01   4.4611328e+01   7.0738281e+01
   6.4695312e+01   4.4433594e+01   7.0560547e+01
   6.4695312e+01   4.4255859e+01   7.0738281e+01
   6.4339844e+01   4.4789062e+01   7.0560547e+01
   6.4517578e+01   4.4789062e+01   7.0738281e+01
   6.4339844e+01   4.4789062e+01   7.0916016e+01
   6.4162109e+01   4.4789062e+01   7.0738281e+01
   6.4339844e+01   4.4611328e+01   7.1093750e+01
   6.4517578e+01   4.4433594e+01   7.1093750e+01
   6.5406250e+01   4.4611328e+01   7.0738281e+01
   6.5406250e+01   4.4433594e+01   7.0560547e+01
   6.5050781e+01   4.4789062e+01   7.0560547e+01
   6.5228516e+01   4.4789062e+01   7.0738281e+01
   6.5050781e+01   4.4789062e+01   7.0916016e+01
   6.4873047e+01   4.4789062e+01   7.0738281e+01
   6.5050781e+01   4.4611328e+01   7.1093750e+01
   6.4695312e+01   4.5144531e+01   7.0916016e+01
   6.4695312e+01   4.5322266e+01   7.0738281e+01
   6.4695312e+01   4.5144531e+01   7.0560547e+01
   6.4695312e+01   4.4966797e+01   7.0738281e+01
   6.4339844e+01   4.5500000e+01   7.0560547e+01
   6.4517578e+01   4.5500000e+01   7.0738281e+01
   6.4339844e+01   4.5500000e+01   7.0916016e+01
   6.4162109e+01   4.5500000e+01   7.0738281e+01
   6.4339844e+01   4.5322266e+01   7.1093750e+01
   6.4517578e+01   4.5144531e+01   7.1093750e+01
   6.4339844e+01   4.4966797e+01   7.1093750e+01
   6.5406250e+01   4.5144531e+01   7.0916016e+01
   6.5406250e+01   4.5322266e+01   7.0738281e+01
   6.5406250e+01   4.5144531e+01   7.0560547e+01
   6.5406250e+01   4.4966797e+01   7.0738281e+01
   6.5050781e+01   4.5500000e+01   7.0560547e+01
   6.5228516e+01   4.5500000e+01   7.0738281e+01
   6.5050781e+01   4.5500000e+01   7.0916016e+01
   6.4873047e+01   4.5500000e+01   7.0738281e+01
   6.5050781e+01   4.5322266e+01   7.1093750e+01
   6.5228516e+01   4.5144531e+01   7.1093750e+01
   6.5050781e+01   4.4966797e+01   7.1093750e+01
   6.4873047e+01   4.5144531e+01   7.1093750e+01
   6.6117188e+01   4.3189453e+01   6.8605469e+01
   6.6117188e+01   4.3011719e+01   6.8427734e+01
   6.6117188e+01   4.2833984e+01   6.8605469e+01
   6.5761719e+01   4.3367188e+01   6.8427734e+01
   6.5939453e+01   4.3367188e+01   6.8605469e+01
   6.5761719e+01   4.3367188e+01   6.8783203e+01
   6.5583984e+01   4.3367188e+01   6.8605469e+01
   6.5761719e+01   4.3189453e+01   6.8960938e+01
   6.5583984e+01   4.3011719e+01   6.8960938e+01
   6.6472656e+01   4.3367188e+01   6.8427734e+01
   6.6650391e+01   4.3367188e+01   6.8605469e+01
   6.6294922e+01   4.3367188e+01   6.8605469e+01
   6.6117188e+01   4.3722656e+01   6.8783203e+01
   6.6117188e+01   4.3900391e+01   6.8605469e+01
   6.6117188e+01   4.3722656e+01   6.8427734e+01
   6.6117188e+01   4.3544922e+01   6.8605469e+01
   6.5761719e+01   4.4078125e+01   6.8427734e+01
   6.5939453e+01   4.4078125e+01   6.8605469e+01
   6.5761719e+01   4.4078125e+01   6.8783203e+01
   6.5583984e+01   4.4078125e+01   6.8605469e+01
   6.5761719e+01   4.3900391e+01   6.8960938e+01
   6.5939453e+01   4.3722656e+01   6.8960938e+01
   6.5761719e+01   4.3544922e+01   6.8960938e+01
   6.5583984e+01   4.3722656e+01   6.8960938e+01
   6.6828125e+01   4.3722656e+01   6.8783203e+01
   6.6828125e+01   4.3900391e+01   6.8605469e+01
   6.6828125e+01   4.3722656e+01   6.8427734e+01
   6.6828125e+01   4.3544922e+01   6.8605469e+01
   6.6472656e+01   4.4078125e+01   6.8427734e+01
   6.6650391e+01   4.4078125e+01   6.8605469e+01
   6.6472656e+01   4.4078125e+01   6.8783203e+01
   6.6294922e+01   4.4078125e+01   6.8605469e+01
   6.6472656e+01   4.3900391e+01   6.8960938e+01
   6.6294922e+01   4.3722656e+01   6.8960938e+01
   6.5761719e+01   4.3367188e+01   6.9138672e+01
   6.5583984e+01   4.3367188e+01   6.9316406e+01
   6.6117188e+01   4.3900391e+01   6.9316406e+01
   6.6117188e+01   4.3722656e+01   6.9138672e+01
   6.5761719e+01   4.4078125e+01   6.9138672e+01
   6.5939453e+01   4.4078125e+01   6.9316406e+01
   6.5761719e+01   4.4078125e+01   6.9494141e+01
   6.5583984e+01   4.4078125e+01   6.9316406e+01
   6.5761719e+01   4.3900391e+01   6.9671875e+01
   6.5583984e+01   4.3722656e+01   6.9671875e+01
   6.6472656e+01   4.4078125e+01   6.9138672e+01
   6.6294922e+01   4.4078125e+01   6.9316406e+01
   6.7183594e+01   4.4078125e+01   6.8427734e+01
   6.7361328e+01   4.4078125e+01   6.8605469e+01
   6.7183594e+01   4.4078125e+01   6.8783203e+01
   6.7005859e+01   4.4078125e+01   6.8605469e+01
   6.6117188e+01   4.4433594e+01   6.8783203e+01
   6.6117188e+01   4.4611328e+01   6.8605469e+01
   6.6117188e+01   4.4433594e+01   6.8427734e+01
   6.6117188e+01   4.4255859e+01   6.8605469e+01
   6.5761719e+01   4.4789062e+01   6.8427734e+01
   6.5939453e+01   4.4789062e+01   6.8605469e+01
   6.5761719e+01   4.4789062e+01   6.8783203e+01
   6.5583984e+01   4.4789062e+01   6.8605469e+01
   6.5761719e+01   4.4611328e+01   6.8960938e+01
   6.5939453e+01   4.4433594e+01   6.8960938e+01
   6.5761719e+01   4.4255859e+01   6.8960938e+01
   6.5583984e+01   4.4433594e+01   6.8960938e+01
   6.6828125e+01   4.4433594e+01   6.8783203e+01
   6.6828125e+01   4.4611328e+01   6.8605469e+01
   6.6828125e+01   4.4433594e+01   6.8427734e+01
   6.6828125e+01   4.4255859e+01   6.8605469e+01
   6.6472656e+01   4.4789062e+01   6.8427734e+01
   6.6650391e+01   4.4789062e+01   6.8605469e+01
   6.6472656e+01   4.4789062e+01   6.8783203e+01
   6.6294922e+01   4.4789062e+01   6.8605469e+01
   6.6472656e+01   4.4611328e+01   6.8960938e+01
   6.6650391e+01   4.4433594e+01   6.8960938e+01
   6.6472656e+01   4.4255859e+01   6.8960938e+01
   6.6294922e+01   4.4433594e+01   6.8960938e+01
   6.6117188e+01   4.5144531e+01   6.8783203e+01
   6.6117188e+01   4.5322266e+01   6.8605469e+01
   6.6117188e+01   4.5144531e+01   6.8427734e+01
   6.6117188e+01   4.4966797e+01   6.8605469e+01
   6.5761719e+01   4.5500000e+01   6.8427734e+01
   6.5939453e+01   4.5500000e+01   6.8605469e+01
   6.5761719e+01   4.5500000e+01   6.8783203e+01
   6.5583984e+01   4.5500000e+01   6.8605469e+01
   6.5761719e+01   4.5322266e+01   6.8960938e+01
   6.5939453e+01   4.5144531e+01   6.8960938e+01
   6.5761719e+01   4.4966797e+01   6.8960938e+01
   6.5583984e+01   4.5144531e+01   6.8960938e+01
   6.6828125e+01   4.5144531e+01   6.8783203e+01
   6.6828125e+01   4.5322266e+01   6.8605469e+01
   6.6828125e+01   4.5144531e+01   6.8427734e+01
   6.6828125e+01   4.4966797e+01   6.8605469e+01
   6.6472656e+01   4.5500000e+01   6.8427734e+01
   6.6650391e+01   4.5500000e+01   6.8605469e+01
   6.6472656e+01   4.5500000e+01   6.8783203e+01
   6.6294922e+01   4.5500000e+01   6.8605469e+01
   6.6472656e+01   4.5322266e+01   6.8960938e+01
   6.6650391e+01   4.5144531e+01   6.8960938e+01
   6.6472656e+01   4.4966797e+01   6.8960938e+01
   6.6294922e+01   4.5144531e+01   6.8960938e+01
   6.6117188e+01   4.4433594e+01   6.9494141e+01
   6.6117188e+01   4.4611328e+01   6.9316406e+01
   6.6117188e+01   4.4433594e+01   6.9138672e+01
   6.6117188e+01   4.4255859e+01   6.9316406e+01
   6.5761719e+01   4.4789062e+01   6.9138672e+01
   6.5939453e+01   4.4789062e+01   6.9316406e+01
   6.5761719e+01   4.4789062e+01   6.9494141e+01
   6.5583984e+01   4.4789062e+01   6.9316406e+01
   6.5761719e+01   4.4611328e+01   6.9671875e+01
   6.5939453e+01   4.4433594e+01   6.9671875e+01
   6.5761719e+01   4.4255859e+01   6.9671875e+01
   6.5583984e+01   4.4433594e+01   6.9671875e+01
   6.6828125e+01   4.4611328e+01   6.9316406e+01
   6.6828125e+01   4.4433594e+01   6.9138672e+01
   6.6472656e+01   4.4789062e+01   6.9138672e+01
   6.6650391e+01   4.4789062e+01   6.9316406e+01
   6.6472656e+01   4.4789062e+01   6.9494141e+01
   6.6294922e+01   4.4789062e+01   6.9316406e+01
   6.6472656e+01   4.4611328e+01   6.9671875e+01
   6.6294922e+01   4.4433594e+01   6.9671875e+01
   6.6117188e+01   4.5144531e+01   6.9494141e+01
   6.6117188e+01   4.5322266e+01   6.9316406e+01
   6.6117188e+01   4.5144531e+01   6.9138672e+01
   6.6117188e+01   4.4966797e+01   6.9316406e+01
   6.5761719e+01   4.5500000e+01   6.9138672e+01
   6.5939453e+01   4.5500000e+01   6.9316406e+01
   6.5761719e+01   4.5500000e+01   6.9494141e+01
   6.5583984e+01   4.5500000e+01   6.9316406e+01
   6.5761719e+01   4.5322266e+01   6.9671875e+01
   6.5939453e+01   4.5144531e+01   6.9671875e+01
   6.5761719e+01   4.4966797e+01   6.9671875e+01
   6.5583984e+01   4.5144531e+01   6.9671875e+01
   6.6828125e+01   4.5144531e+01   6.9494141e+01
   6.6828125e+01   4.5322266e+01   6.9316406e+01
   6.6828125e+01   4.5144531e+01   6.9138672e+01
   6.6828125e+01   4.4966797e+01   6.9316406e+01
   6.6472656e+01   4.5500000e+01   6.9138672e+01
   6.6650391e+01   4.5500000e+01   6.9316406e+01
   6.6472656e+01   4.5500000e+01   6.9494141e+01
   6.6294922e+01   4.5500000e+01   6.9316406e+01
   6.6472656e+01   4.5322266e+01   6.9671875e+01
   6.6650391e+01   4.5144531e+01   6.9671875e+01
   6.6472656e+01   4.4966797e+01   6.9671875e+01
   6.6294922e+01   4.5144531e+01   6.9671875e+01
   6.7539062e+01   4.4433594e+01   6.8783203e+01
   6.7539062e+01   4.4611328e+01   6.8605469e+01
   6.7539062e+01   4.4433594e+01   6.8427734e+01
   6.7539062e+01   4.4255859e+01   6.8605469e+01
   6.7183594e+01   4.4789062e+01   6.8427734e+01
   6.7361328e+01   4.4789062e+01   6.8605469e+01
   6.7183594e+01   4.4789062e+01   6.8783203e+01
   6.7005859e+01   4.4789062e+01   6.8605469e+01
   6.7183594e+01   4.4611328e+01   6.8960938e+01
   6.7005859e+01   4.4433594e+01   6.8960938e+01
   6.7894531e+01   4.4789062e+01   6.8427734e+01
   6.8072266e+01   4.4789062e+01   6.8605469e+01
   6.7894531e+01   4.4789062e+01   6.8783203e+01
   6.7716797e+01   4.4789062e+01   6.8605469e+01
   6.7539062e+01   4.5144531e+01   6.8783203e+01
   6.7539062e+01   4.5322266e+01   6.8605469e+01
   6.7539062e+01   4.5144531e+01   6.8427734e+01
   6.7539062e+01   4.4966797e+01   6.8605469e+01
   6.7183594e+01   4.5500000e+01   6.8427734e+01
   6.7361328e+01   4.5500000e+01   6.8605469e+01
   6.7183594e+01   4.5500000e+01   6.8783203e+01
   6.7005859e+01   4.5500000e+01   6.8605469e+01
   6.7183594e+01   4.5322266e+01   6.8960938e+01
   6.7361328e+01   4.5144531e+01   6.8960938e+01
   6.7183594e+01   4.4966797e+01   6.8960938e+01
   6.7005859e+01   4.5144531e+01   6.8960938e+01
   6.8250000e+01   4.5144531e+01   6.8783203e+01
   6.8250000e+01   4.5322266e+01   6.8605469e+01
   6.8250000e+01   4.5144531e+01   6.8427734e+01
   6.8250000e+01   4.4966797e+01   6.8605469e+01
   6.7894531e+01   4.5500000e+01   6.8427734e+01
   6.8072266e+01   4.5500000e+01   6.8605469e+01
   6.7894531e+01   4.5500000e+01   6.8783203e+01
   6.7716797e+01   4.5500000e+01   6.8605469e+01
   6.7894531e+01   4.5322266e+01   6.8960938e+01
   6.8072266e+01   4.5144531e+01   6.8960938e+01
   6.7894531e+01   4.4966797e+01   6.8960938e+01
   6.7716797e+01   4.5144531e+01   6.8960938e+01
   6.7183594e+01   4.4789062e+01   6.9138672e+01
   6.7005859e+01   4.4789062e+01   6.9316406e+01
   6.7539062e+01   4.5322266e+01   6.9316406e+01
   6.7539062e+01   4.5144531e+01   6.9138672e+01
   6.7183594e+01   4.5500000e+01   6.9138672e+01
   6.7361328e+01   4.5500000e+01   6.9316406e+01
   6.7183594e+01   4.5500000e+01   6.9494141e+01
   6.7005859e+01   4.5500000e+01   6.9316406e+01
   6.7183594e+01   4.5322266e+01   6.9671875e+01
   6.7005859e+01   4.5144531e+01   6.9671875e+01
   6.7894531e+01   4.5500000e+01   6.9138672e+01
   6.7716797e+01   4.5500000e+01   6.9316406e+01
   6.5761719e+01   4.4078125e+01   6.9849609e+01
   6.5583984e+01   4.4078125e+01   7.0027344e+01
   6.6117188e+01   4.4611328e+01   7.0027344e+01
   6.6117188e+01   4.4433594e+01   6.9849609e+01
   6.5761719e+01   4.4789062e+01   6.9849609e+01
   6.5939453e+01   4.4789062e+01   7.0027344e+01
   6.5761719e+01   4.4789062e+01   7.0205078e+01
   6.5583984e+01   4.4789062e+01   7.0027344e+01
   6.5761719e+01   4.4611328e+01   7.0382812e+01
   6.5583984e+01   4.4433594e+01   7.0382812e+01
   6.6472656e+01   4.4789062e+01   6.9849609e+01
   6.6294922e+01   4.4789062e+01   7.0027344e+01
   6.6117188e+01   4.5144531e+01   7.0205078e+01
   6.6117188e+01   4.5322266e+01   7.0027344e+01
   6.6117188e+01   4.5144531e+01   6.9849609e+01
   6.6117188e+01   4.4966797e+01   7.0027344e+01
   6.5761719e+01   4.5500000e+01   6.9849609e+01
   6.5939453e+01   4.5500000e+01   7.0027344e+01
   6.5761719e+01   4.5500000e+01   7.0205078e+01
   6.5583984e+01   4.5500000e+01   7.0027344e+01
   6.5761719e+01   4.5322266e+01   7.0382812e+01
   6.5939453e+01   4.5144531e+01   7.0382812e+01
   6.5761719e+01   4.4966797e+01   7.0382812e+01
   6.5583984e+01   4.5144531e+01   7.0382812e+01
   6.6828125e+01   4.5322266e+01   7.0027344e+01
   6.6828125e+01   4.5144531e+01   6.9849609e+01
   6.6472656e+01   4.5500000e+01   6.9849609e+01
   6.6650391e+01   4.5500000e+01   7.0027344e+01
   6.6472656e+01   4.5500000e+01   7.0205078e+01
   6.6294922e+01   4.5500000e+01   7.0027344e+01
   6.6472656e+01   4.5322266e+01   7.0382812e+01
   6.6294922e+01   4.5144531e+01   7.0382812e+01
   6.5761719e+01   4.4789062e+01   7.0560547e+01
   6.5583984e+01   4.4789062e+01   7.0738281e+01
   6.6117188e+01   4.5322266e+01   7.0738281e+01
   6.6117188e+01   4.5144531e+01   7.0560547e+01
   6.5761719e+01   4.5500000e+01   7.0560547e+01
   6.5939453e+01   4.5500000e+01   7.0738281e+01
   6.5761719e+01   4.5500000e+01   7.0916016e+01
   6.5583984e+01   4.5500000e+01   7.0738281e+01
   6.5761719e+01   4.5322266e+01   7.1093750e+01
   6.5583984e+01   4.5144531e+01   7.1093750e+01
   6.6472656e+01   4.5500000e+01   7.0560547e+01
   6.6294922e+01   4.5500000e+01   7.0738281e+01
   6.7183594e+01   4.5500000e+01   6.9849609e+01
   6.7005859e+01   4.5500000e+01   7.0027344e+01
   6.4695312e+01   4.5144531e+01   7.1626953e+01
   6.4695312e+01   4.5322266e+01   7.1449219e+01
   6.4695312e+01   4.5144531e+01   7.1271484e+01
   6.4695312e+01   4.4966797e+01   7.1449219e+01
   6.4339844e+01   4.5500000e+01   7.1271484e+01
   6.4517578e+01   4.5500000e+01   7.1449219e+01
   6.5050781e+01   4.5500000e+01   7.1271484e+01
   6.5228516e+01   4.5500000e+01   7.1449219e+01
   6.5050781e+01   4.5500000e+01   7.1626953e+01
   6.4873047e+01   4.5500000e+01   7.1449219e+01
   6.8605469e+01   4.5500000e+01   6.8427734e+01
   6.8427734e+01   4.5500000e+01   6.8605469e+01
   6.8250000e+01   4.5855469e+01   6.5939453e+01
   6.8250000e+01   4.5677734e+01   6.5761719e+01
   6.8072266e+01   4.5855469e+01   6.6117188e+01
   6.7894531e+01   4.5677734e+01   6.6117188e+01
   6.7539062e+01   4.5855469e+01   6.6650391e+01
   6.7539062e+01   4.6033203e+01   6.6472656e+01
   6.7539062e+01   4.5855469e+01   6.6294922e+01
   6.7539062e+01   4.5677734e+01   6.6472656e+01
   6.7183594e+01   4.6033203e+01   6.6828125e+01
   6.7361328e+01   4.5855469e+01   6.6828125e+01
   6.7183594e+01   4.5677734e+01   6.6828125e+01
   6.7005859e+01   4.5855469e+01   6.6828125e+01
   6.8250000e+01   4.5855469e+01   6.6650391e+01
   6.8250000e+01   4.6033203e+01   6.6472656e+01
   6.8250000e+01   4.5855469e+01   6.6294922e+01
   6.8250000e+01   4.5677734e+01   6.6472656e+01
   6.8072266e+01   4.6210938e+01   6.6472656e+01
   6.7894531e+01   4.6210938e+01   6.6650391e+01
   6.7716797e+01   4.6210938e+01   6.6472656e+01
   6.7894531e+01   4.6033203e+01   6.6828125e+01
   6.8072266e+01   4.5855469e+01   6.6828125e+01
   6.7894531e+01   4.5677734e+01   6.6828125e+01
   6.7716797e+01   4.5855469e+01   6.6828125e+01
   6.8250000e+01   4.6566406e+01   6.6650391e+01
   6.8250000e+01   4.6744141e+01   6.6472656e+01
   6.8250000e+01   4.6388672e+01   6.6472656e+01
   6.7894531e+01   4.6744141e+01   6.6828125e+01
   6.8072266e+01   4.6566406e+01   6.6828125e+01
   6.7894531e+01   4.6388672e+01   6.6828125e+01
   6.7716797e+01   4.6566406e+01   6.6828125e+01
   6.6828125e+01   4.5855469e+01   6.7361328e+01
   6.6828125e+01   4.6033203e+01   6.7183594e+01
   6.6828125e+01   4.5855469e+01   6.7005859e+01
   6.6828125e+01   4.5677734e+01   6.7183594e+01
   6.6472656e+01   4.6033203e+01   6.7539062e+01
   6.6650391e+01   4.5855469e+01   6.7539062e+01
   6.6472656e+01   4.5677734e+01   6.7539062e+01
   6.6294922e+01   4.5855469e+01   6.7539062e+01
   6.6117188e+01   4.5855469e+01   6.8072266e+01
   6.6117188e+01   4.6033203e+01   6.7894531e+01
   6.6117188e+01   4.5855469e+01   6.7716797e+01
   6.6117188e+01   4.5677734e+01   6.7894531e+01
   6.5761719e+01   4.6033203e+01   6.8250000e+01
   6.5939453e+01   4.5855469e+01   6.8250000e+01
   6.5761719e+01   4.5677734e+01   6.8250000e+01
   6.5583984e+01   4.5855469e+01   6.8250000e+01
   6.6828125e+01   4.5855469e+01   6.8072266e+01
   6.6828125e+01   4.6033203e+01   6.7894531e+01
   6.6828125e+01   4.5855469e+01   6.7716797e+01
   6.6828125e+01   4.5677734e+01   6.7894531e+01
   6.6472656e+01   4.6210938e+01   6.7716797e+01
   6.6650391e+01   4.6210938e+01   6.7894531e+01
   6.6472656e+01   4.6210938e+01   6.8072266e+01
   6.6294922e+01   4.6210938e+01   6.7894531e+01
   6.6472656e+01   4.6033203e+01   6.8250000e+01
   6.6650391e+01   4.5855469e+01   6.8250000e+01
   6.6472656e+01   4.5677734e+01   6.8250000e+01
   6.6294922e+01   4.5855469e+01   6.8250000e+01
   6.6828125e+01   4.6566406e+01   6.8072266e+01
   6.6828125e+01   4.6744141e+01   6.7894531e+01
   6.6828125e+01   4.6566406e+01   6.7716797e+01
   6.6828125e+01   4.6388672e+01   6.7894531e+01
