   7.2160156e+01   3.9812500e+01   6.2029297e+01
   7.1982422e+01   3.9812500e+01   6.2207031e+01
   7.2053828e+01   3.9723865e+01   6.2542670e+01
   7.2217426e+01   3.9469031e+01   6.2313471e+01
   7.1986045e+01   3.9192380e+01   6.2520853e+01
   7.1918141e+01   3.9392749e+01   6.2547388e+01
   7.2962170e+01   3.8749459e+01   6.1541899e+01
   7.3052451e+01   3.8836911e+01   6.1454446e+01
   7.3160330e+01   3.8812326e+01   6.1252127e+01
   7.3026451e+01   3.8636007e+01   6.1428447e+01
   7.2871094e+01   3.9101562e+01   6.1318359e+01
   7.2693359e+01   3.9101562e+01   6.1496094e+01
   7.2676297e+01   3.8990061e+01   6.1830600e+01
   7.2916900e+01   3.8749459e+01   6.1587169e+01
   7.2803447e+01   3.8636007e+01   6.1651451e+01
   7.2627127e+01   3.8812326e+01   6.1830600e+01
   7.3331881e+01   3.9112441e+01   6.1196773e+01
   7.3049717e+01   3.9477982e+01   6.1585850e+01
   7.3158646e+01   3.9546788e+01   6.1517044e+01
   7.3225674e+01   3.9524948e+01   6.1317470e+01
   7.3171209e+01   3.9223943e+01   6.1312176e+01
   7.2871094e+01   3.9812500e+01   6.1318359e+01
   7.2693359e+01   3.9812500e+01   6.1496094e+01
   7.2785619e+01   3.9669874e+01   6.1905321e+01
   7.2960850e+01   3.9477982e+01   6.1674717e+01
   7.2638006e+01   3.9401678e+01   6.1885076e+01
   7.3473873e+01   3.9822318e+01   6.1259371e+01
   7.3345309e+01   3.9822318e+01   6.1387936e+01
   7.2620943e+01   3.9112441e+01   6.1907711e+01
   7.2571773e+01   3.9112441e+01   6.1952980e+01
   7.2760436e+01   3.9822426e+01   6.1969006e+01
   7.2633066e+01   3.9822426e+01   6.2078774e+01
   6.9760742e+01   4.0256836e+01   5.8563477e+01
   6.9760742e+01   4.0079102e+01   5.8741211e+01
   7.0382812e+01   4.0167969e+01   5.8830078e+01
   7.0382812e+01   4.0345703e+01   5.8652344e+01
   7.0382812e+01   4.0167969e+01   5.8474609e+01
   7.0382812e+01   3.9990234e+01   5.8652344e+01
   7.0027344e+01   4.0523438e+01   5.8474609e+01
   7.0205078e+01   4.0523438e+01   5.8652344e+01
   7.0027344e+01   4.0523438e+01   5.8830078e+01
   6.9849609e+01   4.0523438e+01   5.8652344e+01
   7.0116211e+01   4.0079102e+01   5.8385742e+01
   6.9938477e+01   4.0256836e+01   5.8385742e+01
   7.0027344e+01   4.0345703e+01   5.9007812e+01
   7.0205078e+01   4.0167969e+01   5.9007812e+01
   7.0027344e+01   3.9990234e+01   5.9007812e+01
   6.9849609e+01   4.0167969e+01   5.9007812e+01
   7.1093750e+01   4.0167969e+01   5.8830078e+01
   7.1093750e+01   4.0345703e+01   5.8652344e+01
   7.1093750e+01   4.0167969e+01   5.8474609e+01
   7.1093750e+01   3.9990234e+01   5.8652344e+01
   7.0738281e+01   4.0523438e+01   5.8474609e+01
   7.0916016e+01   4.0523438e+01   5.8652344e+01
   7.0738281e+01   4.0523438e+01   5.8830078e+01
   7.0560547e+01   4.0523438e+01   5.8652344e+01
   7.0827148e+01   4.0256836e+01   5.8385742e+01
   7.0649414e+01   4.0079102e+01   5.8385742e+01
   7.0738281e+01   4.0345703e+01   5.9007812e+01
   7.0916016e+01   4.0167969e+01   5.9007812e+01
   7.0738281e+01   3.9990234e+01   5.9007812e+01
   7.0560547e+01   4.0167969e+01   5.9007812e+01
   6.9760742e+01   4.0967773e+01   5.8741211e+01
   6.9760742e+01   4.0790039e+01   5.8563477e+01
   7.0382812e+01   4.0878906e+01   5.8830078e+01
   7.0382812e+01   4.1056641e+01   5.8652344e+01
   7.0382812e+01   4.0878906e+01   5.8474609e+01
   7.0382812e+01   4.0701172e+01   5.8652344e+01
   7.0027344e+01   4.1234375e+01   5.8474609e+01
   7.0205078e+01   4.1234375e+01   5.8652344e+01
   7.0027344e+01   4.1234375e+01   5.8830078e+01
   6.9849609e+01   4.1234375e+01   5.8652344e+01
   7.0116211e+01   4.0967773e+01   5.8385742e+01
   6.9938477e+01   4.0790039e+01   5.8385742e+01
   7.0027344e+01   4.1056641e+01   5.9007812e+01
   7.0205078e+01   4.0878906e+01   5.9007812e+01
   7.0027344e+01   4.0701172e+01   5.9007812e+01
   6.9849609e+01   4.0878906e+01   5.9007812e+01
   7.1093750e+01   4.0878906e+01   5.8830078e+01
   7.1093750e+01   4.1056641e+01   5.8652344e+01
   7.1093750e+01   4.0878906e+01   5.8474609e+01
   7.1093750e+01   4.0701172e+01   5.8652344e+01
   7.0738281e+01   4.1234375e+01   5.8474609e+01
   7.0916016e+01   4.1234375e+01   5.8652344e+01
   7.0738281e+01   4.1234375e+01   5.8830078e+01
   7.0560547e+01   4.1234375e+01   5.8652344e+01
   7.0827148e+01   4.0790039e+01   5.8385742e+01
   7.0649414e+01   4.0967773e+01   5.8385742e+01
   7.0738281e+01   4.1056641e+01   5.9007812e+01
   7.0916016e+01   4.0878906e+01   5.9007812e+01
   7.0738281e+01   4.0701172e+01   5.9007812e+01
   7.0560547e+01   4.0878906e+01   5.9007812e+01
   6.9760742e+01   4.0256836e+01   5.9452148e+01
   6.9760742e+01   4.0079102e+01   5.9274414e+01
   7.0382812e+01   4.0167969e+01   5.9541016e+01
   7.0382812e+01   4.0345703e+01   5.9363281e+01
   7.0382812e+01   4.0167969e+01   5.9185547e+01
   7.0382812e+01   3.9990234e+01   5.9363281e+01
   7.0027344e+01   4.0523438e+01   5.9185547e+01
   7.0205078e+01   4.0523438e+01   5.9363281e+01
   7.0027344e+01   4.0523438e+01   5.9541016e+01
   6.9849609e+01   4.0523438e+01   5.9363281e+01
   7.0027344e+01   4.0345703e+01   5.9718750e+01
   7.0205078e+01   4.0167969e+01   5.9718750e+01
   7.0027344e+01   3.9990234e+01   5.9718750e+01
   6.9849609e+01   4.0167969e+01   5.9718750e+01
   7.1093750e+01   4.0167969e+01   5.9541016e+01
   7.1093750e+01   4.0345703e+01   5.9363281e+01
   7.1093750e+01   4.0167969e+01   5.9185547e+01
   7.1093750e+01   3.9990234e+01   5.9363281e+01
   7.0738281e+01   4.0523438e+01   5.9185547e+01
   7.0916016e+01   4.0523438e+01   5.9363281e+01
   7.0738281e+01   4.0523438e+01   5.9541016e+01
   7.0560547e+01   4.0523438e+01   5.9363281e+01
   7.0738281e+01   4.0345703e+01   5.9718750e+01
   7.0916016e+01   4.0167969e+01   5.9718750e+01
   7.0738281e+01   3.9990234e+01   5.9718750e+01
   7.0560547e+01   4.0167969e+01   5.9718750e+01
   6.9760742e+01   4.0967773e+01   5.9274414e+01
   6.9760742e+01   4.0790039e+01   5.9452148e+01
   7.0382812e+01   4.0878906e+01   5.9541016e+01
   7.0382812e+01   4.1056641e+01   5.9363281e+01
   7.0382812e+01   4.0878906e+01   5.9185547e+01
   7.0382812e+01   4.0701172e+01   5.9363281e+01
   7.0027344e+01   4.1234375e+01   5.9185547e+01
   7.0205078e+01   4.1234375e+01   5.9363281e+01
   7.0027344e+01   4.1234375e+01   5.9541016e+01
   6.9849609e+01   4.1234375e+01   5.9363281e+01
   7.0027344e+01   4.1056641e+01   5.9718750e+01
   7.0205078e+01   4.0878906e+01   5.9718750e+01
   7.0027344e+01   4.0701172e+01   5.9718750e+01
   6.9849609e+01   4.0878906e+01   5.9718750e+01
   7.1093750e+01   4.0878906e+01   5.9541016e+01
   7.1093750e+01   4.1056641e+01   5.9363281e+01
   7.1093750e+01   4.0878906e+01   5.9185547e+01
   7.1093750e+01   4.0701172e+01   5.9363281e+01
   7.0738281e+01   4.1234375e+01   5.9185547e+01
   7.0916016e+01   4.1234375e+01   5.9363281e+01
   7.0738281e+01   4.1234375e+01   5.9541016e+01
   7.0560547e+01   4.1234375e+01   5.9363281e+01
   7.0738281e+01   4.1056641e+01   5.9718750e+01
   7.0916016e+01   4.0878906e+01   5.9718750e+01
   7.0738281e+01   4.0701172e+01   5.9718750e+01
   7.0560547e+01   4.0878906e+01   5.9718750e+01
   6.9760742e+01   4.1678711e+01   5.8563477e+01
   6.9760742e+01   4.1500977e+01   5.8741211e+01
   7.0382812e+01   4.1589844e+01   5.8830078e+01
   7.0382812e+01   4.1767578e+01   5.8652344e+01
   7.0382812e+01   4.1589844e+01   5.8474609e+01
   7.0382812e+01   4.1412109e+01   5.8652344e+01
   7.0027344e+01   4.1945312e+01   5.8474609e+01
   7.0205078e+01   4.1945312e+01   5.8652344e+01
   7.0027344e+01   4.1945312e+01   5.8830078e+01
   6.9849609e+01   4.1945312e+01   5.8652344e+01
   7.0116211e+01   4.1500977e+01   5.8385742e+01
   6.9938477e+01   4.1678711e+01   5.8385742e+01
   7.0027344e+01   4.1767578e+01   5.9007812e+01
   7.0205078e+01   4.1589844e+01   5.9007812e+01
   7.0027344e+01   4.1412109e+01   5.9007812e+01
   6.9849609e+01   4.1589844e+01   5.9007812e+01
   7.1093750e+01   4.1589844e+01   5.8830078e+01
   7.1093750e+01   4.1767578e+01   5.8652344e+01
   7.1093750e+01   4.1589844e+01   5.8474609e+01
   7.1093750e+01   4.1412109e+01   5.8652344e+01
   7.0738281e+01   4.1945312e+01   5.8474609e+01
   7.0916016e+01   4.1945312e+01   5.8652344e+01
   7.0738281e+01   4.1945312e+01   5.8830078e+01
   7.0560547e+01   4.1945312e+01   5.8652344e+01
   7.0827148e+01   4.1678711e+01   5.8385742e+01
   7.0649414e+01   4.1500977e+01   5.8385742e+01
   7.0738281e+01   4.1767578e+01   5.9007812e+01
   7.0916016e+01   4.1589844e+01   5.9007812e+01
   7.0738281e+01   4.1412109e+01   5.9007812e+01
   7.0560547e+01   4.1589844e+01   5.9007812e+01
   6.9760742e+01   4.2389648e+01   5.8741211e+01
   6.9760742e+01   4.2211914e+01   5.8563477e+01
   7.0382812e+01   4.2300781e+01   5.8830078e+01
   7.0382812e+01   4.2478516e+01   5.8652344e+01
   7.0382812e+01   4.2300781e+01   5.8474609e+01
   7.0382812e+01   4.2123047e+01   5.8652344e+01
   7.0116211e+01   4.2567383e+01   5.8563477e+01
   6.9938477e+01   4.2567383e+01   5.8741211e+01
   7.0116211e+01   4.2389648e+01   5.8385742e+01
   6.9938477e+01   4.2211914e+01   5.8385742e+01
   7.0027344e+01   4.2478516e+01   5.9007812e+01
   7.0205078e+01   4.2300781e+01   5.9007812e+01
   7.0027344e+01   4.2123047e+01   5.9007812e+01
   6.9849609e+01   4.2300781e+01   5.9007812e+01
   7.1093750e+01   4.2300781e+01   5.8830078e+01
   7.1093750e+01   4.2478516e+01   5.8652344e+01
   7.1093750e+01   4.2300781e+01   5.8474609e+01
   7.1093750e+01   4.2123047e+01   5.8652344e+01
   7.0827148e+01   4.2567383e+01   5.8741211e+01
   7.0649414e+01   4.2567383e+01   5.8563477e+01
   7.0827148e+01   4.2211914e+01   5.8385742e+01
   7.0649414e+01   4.2389648e+01   5.8385742e+01
   7.0738281e+01   4.2478516e+01   5.9007812e+01
   7.0916016e+01   4.2300781e+01   5.9007812e+01
   7.0738281e+01   4.2123047e+01   5.9007812e+01
   7.0560547e+01   4.2300781e+01   5.9007812e+01
   6.9760742e+01   4.1678711e+01   5.9452148e+01
   6.9760742e+01   4.1500977e+01   5.9274414e+01
   7.0382812e+01   4.1589844e+01   5.9541016e+01
   7.0382812e+01   4.1767578e+01   5.9363281e+01
   7.0382812e+01   4.1589844e+01   5.9185547e+01
   7.0382812e+01   4.1412109e+01   5.9363281e+01
   7.0027344e+01   4.1945312e+01   5.9185547e+01
   7.0205078e+01   4.1945312e+01   5.9363281e+01
   7.0027344e+01   4.1945312e+01   5.9541016e+01
   6.9849609e+01   4.1945312e+01   5.9363281e+01
   7.0027344e+01   4.1767578e+01   5.9718750e+01
   7.0205078e+01   4.1589844e+01   5.9718750e+01
   7.0027344e+01   4.1412109e+01   5.9718750e+01
   6.9849609e+01   4.1589844e+01   5.9718750e+01
   7.1093750e+01   4.1589844e+01   5.9541016e+01
   7.1093750e+01   4.1767578e+01   5.9363281e+01
   7.1093750e+01   4.1589844e+01   5.9185547e+01
   7.1093750e+01   4.1412109e+01   5.9363281e+01
   7.0738281e+01   4.1945312e+01   5.9185547e+01
   7.0916016e+01   4.1945312e+01   5.9363281e+01
   7.0738281e+01   4.1945312e+01   5.9541016e+01
   7.0560547e+01   4.1945312e+01   5.9363281e+01
   7.0738281e+01   4.1767578e+01   5.9718750e+01
   7.0916016e+01   4.1589844e+01   5.9718750e+01
   7.0738281e+01   4.1412109e+01   5.9718750e+01
   7.0560547e+01   4.1589844e+01   5.9718750e+01
   6.9760742e+01   4.2389648e+01   5.9274414e+01
   6.9760742e+01   4.2211914e+01   5.9452148e+01
   7.0382812e+01   4.2300781e+01   5.9541016e+01
   7.0382812e+01   4.2478516e+01   5.9363281e+01
   7.0382812e+01   4.2300781e+01   5.9185547e+01
   7.0382812e+01   4.2123047e+01   5.9363281e+01
   7.0116211e+01   4.2567383e+01   5.9452148e+01
   6.9938477e+01   4.2567383e+01   5.9274414e+01
   7.0027344e+01   4.2478516e+01   5.9718750e+01
   7.0205078e+01   4.2300781e+01   5.9718750e+01
   7.0027344e+01   4.2123047e+01   5.9718750e+01
   6.9849609e+01   4.2300781e+01   5.9718750e+01
   7.1093750e+01   4.2300781e+01   5.9541016e+01
   7.1093750e+01   4.2478516e+01   5.9363281e+01
   7.1093750e+01   4.2300781e+01   5.9185547e+01
   7.1093750e+01   4.2123047e+01   5.9363281e+01
   7.0827148e+01   4.2567383e+01   5.9274414e+01
   7.0649414e+01   4.2567383e+01   5.9452148e+01
   7.0738281e+01   4.2478516e+01   5.9718750e+01
   7.0916016e+01   4.2300781e+01   5.9718750e+01
   7.0738281e+01   4.2123047e+01   5.9718750e+01
   7.0560547e+01   4.2300781e+01   5.9718750e+01
   7.1271484e+01   4.0167969e+01   5.8296875e+01
   7.1449219e+01   4.0523438e+01   5.8830078e+01
   7.1271484e+01   4.0523438e+01   5.8652344e+01
   7.1449219e+01   4.0345703e+01   5.9007812e+01
   7.1626953e+01   4.0167969e+01   5.9007812e+01
   7.1449219e+01   3.9990234e+01   5.9007812e+01
   7.1271484e+01   4.0167969e+01   5.9007812e+01
   7.1449219e+01   4.1234375e+01   5.8830078e+01
   7.1271484e+01   4.1234375e+01   5.8652344e+01
   7.1449219e+01   4.1056641e+01   5.9007812e+01
   7.1626953e+01   4.0878906e+01   5.9007812e+01
   7.1449219e+01   4.0701172e+01   5.9007812e+01
   7.1271484e+01   4.0878906e+01   5.9007812e+01
   7.1804688e+01   4.0167969e+01   5.9541016e+01
   7.1804688e+01   4.0345703e+01   5.9363281e+01
   7.1804688e+01   4.0167969e+01   5.9185547e+01
   7.1804688e+01   3.9990234e+01   5.9363281e+01
   7.1449219e+01   4.0523438e+01   5.9185547e+01
   7.1626953e+01   4.0523438e+01   5.9363281e+01
   7.1449219e+01   4.0523438e+01   5.9541016e+01
   7.1271484e+01   4.0523438e+01   5.9363281e+01
   7.1449219e+01   4.0345703e+01   5.9718750e+01
   7.1626953e+01   4.0167969e+01   5.9718750e+01
   7.1449219e+01   3.9990234e+01   5.9718750e+01
   7.1271484e+01   4.0167969e+01   5.9718750e+01
   7.2160156e+01   4.0523438e+01   5.9541016e+01
   7.1982422e+01   4.0523438e+01   5.9363281e+01
   7.2160156e+01   4.0345703e+01   5.9718750e+01
   7.2337891e+01   4.0167969e+01   5.9718750e+01
   7.2160156e+01   3.9990234e+01   5.9718750e+01
   7.1982422e+01   4.0167969e+01   5.9718750e+01
   7.1804688e+01   4.0878906e+01   5.9541016e+01
   7.1804688e+01   4.1056641e+01   5.9363281e+01
   7.1804688e+01   4.0878906e+01   5.9185547e+01
   7.1804688e+01   4.0701172e+01   5.9363281e+01
   7.1449219e+01   4.1234375e+01   5.9185547e+01
   7.1626953e+01   4.1234375e+01   5.9363281e+01
   7.1449219e+01   4.1234375e+01   5.9541016e+01
   7.1271484e+01   4.1234375e+01   5.9363281e+01
   7.1449219e+01   4.1056641e+01   5.9718750e+01
   7.1626953e+01   4.0878906e+01   5.9718750e+01
   7.1449219e+01   4.0701172e+01   5.9718750e+01
   7.1271484e+01   4.0878906e+01   5.9718750e+01
   7.2160156e+01   4.1056641e+01   5.9718750e+01
   7.2160156e+01   4.0701172e+01   5.9718750e+01
   7.1982422e+01   4.0878906e+01   5.9718750e+01
   7.1449219e+01   4.1945312e+01   5.8830078e+01
   7.1271484e+01   4.1945312e+01   5.8652344e+01
   7.1449219e+01   4.1767578e+01   5.9007812e+01
   7.1626953e+01   4.1589844e+01   5.9007812e+01
   7.1449219e+01   4.1412109e+01   5.9007812e+01
   7.1271484e+01   4.1589844e+01   5.9007812e+01
   7.1271484e+01   4.2656250e+01   5.8652344e+01
   7.1449219e+01   4.2478516e+01   5.9007812e+01
   7.1449219e+01   4.2123047e+01   5.9007812e+01
   7.1271484e+01   4.2300781e+01   5.9007812e+01
   7.1804688e+01   4.1589844e+01   5.9541016e+01
   7.1804688e+01   4.1767578e+01   5.9363281e+01
   7.1804688e+01   4.1412109e+01   5.9363281e+01
   7.1449219e+01   4.1945312e+01   5.9185547e+01
   7.1626953e+01   4.1945312e+01   5.9363281e+01
   7.1449219e+01   4.1945312e+01   5.9541016e+01
   7.1271484e+01   4.1945312e+01   5.9363281e+01
   7.1449219e+01   4.1767578e+01   5.9718750e+01
   7.1626953e+01   4.1589844e+01   5.9718750e+01
   7.1449219e+01   4.1412109e+01   5.9718750e+01
   7.1271484e+01   4.1589844e+01   5.9718750e+01
   7.2160156e+01   4.1767578e+01   5.9718750e+01
   7.2160156e+01   4.1412109e+01   5.9718750e+01
   7.1982422e+01   4.1589844e+01   5.9718750e+01
   7.1804688e+01   4.2300781e+01   5.9541016e+01
   7.1804688e+01   4.2478516e+01   5.9363281e+01
   7.1804688e+01   4.2123047e+01   5.9363281e+01
   7.1449219e+01   4.2656250e+01   5.9185547e+01
   7.1626953e+01   4.2656250e+01   5.9363281e+01
   7.1449219e+01   4.2656250e+01   5.9541016e+01
   7.1271484e+01   4.2656250e+01   5.9363281e+01
   7.1449219e+01   4.2478516e+01   5.9718750e+01
   7.1626953e+01   4.2300781e+01   5.9718750e+01
   7.1449219e+01   4.2123047e+01   5.9718750e+01
   7.1271484e+01   4.2300781e+01   5.9718750e+01
   7.1982422e+01   4.2300781e+01   5.9718750e+01
   7.1182617e+01   4.2922852e+01   5.8741211e+01
   7.1449219e+01   4.3189453e+01   5.9007812e+01
   7.1449219e+01   4.2833984e+01   5.9007812e+01
   7.1271484e+01   4.3011719e+01   5.9007812e+01
   7.1182617e+01   4.3811523e+01   5.8741211e+01
   7.1271484e+01   4.3722656e+01   5.9007812e+01
   7.1182617e+01   4.3100586e+01   5.9452148e+01
   7.1182617e+01   4.2922852e+01   5.9274414e+01
   7.1804688e+01   4.3011719e+01   5.9541016e+01
   7.1449219e+01   4.3367188e+01   5.9185547e+01
   7.1626953e+01   4.3367188e+01   5.9363281e+01
   7.1449219e+01   4.3367188e+01   5.9541016e+01
   7.1271484e+01   4.3367188e+01   5.9363281e+01
   7.1449219e+01   4.3189453e+01   5.9718750e+01
   7.1626953e+01   4.3011719e+01   5.9718750e+01
   7.1449219e+01   4.2833984e+01   5.9718750e+01
   7.1271484e+01   4.3011719e+01   5.9718750e+01
   7.1982422e+01   4.3011719e+01   5.9718750e+01
   7.1182617e+01   4.3811523e+01   5.9274414e+01
   7.1182617e+01   4.3633789e+01   5.9452148e+01
   7.1804688e+01   4.3722656e+01   5.9541016e+01
   7.1449219e+01   4.4078125e+01   5.9185547e+01
   7.1626953e+01   4.4078125e+01   5.9363281e+01
   7.1449219e+01   4.4078125e+01   5.9541016e+01
   7.1271484e+01   4.4078125e+01   5.9363281e+01
   7.1449219e+01   4.3900391e+01   5.9718750e+01
   7.1626953e+01   4.3722656e+01   5.9718750e+01
   7.1449219e+01   4.3544922e+01   5.9718750e+01
   7.1271484e+01   4.3722656e+01   5.9718750e+01
   7.1271484e+01   4.4433594e+01   5.9007812e+01
   7.1182617e+01   4.4522461e+01   5.9452148e+01
   7.1182617e+01   4.4344727e+01   5.9274414e+01
   7.1449219e+01   4.4789062e+01   5.9541016e+01
   7.1271484e+01   4.4789062e+01   5.9363281e+01
   7.1449219e+01   4.4611328e+01   5.9718750e+01
   7.1626953e+01   4.4433594e+01   5.9718750e+01
   7.1449219e+01   4.4255859e+01   5.9718750e+01
   7.1271484e+01   4.4433594e+01   5.9718750e+01
   7.1182617e+01   4.5233398e+01   5.9274414e+01
   7.1182617e+01   4.5055664e+01   5.9452148e+01
   7.1449219e+01   4.5500000e+01   5.9541016e+01
   7.1271484e+01   4.5500000e+01   5.9363281e+01
   7.1449219e+01   4.5322266e+01   5.9718750e+01
   7.1626953e+01   4.5144531e+01   5.9718750e+01
   7.1449219e+01   4.4966797e+01   5.9718750e+01
   7.1271484e+01   4.5144531e+01   5.9718750e+01
   6.8338867e+01   4.0256836e+01   5.9985352e+01
   6.8338867e+01   4.0079102e+01   6.0163086e+01
   6.8960938e+01   4.0167969e+01   6.0251953e+01
   6.8960938e+01   4.0345703e+01   6.0074219e+01
   6.8960938e+01   4.0167969e+01   5.9896484e+01
   6.8960938e+01   3.9990234e+01   6.0074219e+01
   6.8605469e+01   4.0523438e+01   5.9896484e+01
   6.8783203e+01   4.0523438e+01   6.0074219e+01
   6.8605469e+01   4.0523438e+01   6.0251953e+01
   6.8427734e+01   4.0523438e+01   6.0074219e+01
   6.8694336e+01   4.0079102e+01   5.9807617e+01
   6.8516602e+01   4.0256836e+01   5.9807617e+01
   6.8605469e+01   4.0345703e+01   6.0429688e+01
   6.8783203e+01   4.0167969e+01   6.0429688e+01
   6.8605469e+01   3.9990234e+01   6.0429688e+01
   6.8427734e+01   4.0167969e+01   6.0429688e+01
   6.9671875e+01   4.0167969e+01   6.0251953e+01
   6.9671875e+01   4.0345703e+01   6.0074219e+01
   6.9671875e+01   4.0167969e+01   5.9896484e+01
   6.9671875e+01   3.9990234e+01   6.0074219e+01
   6.9316406e+01   4.0523438e+01   5.9896484e+01
   6.9494141e+01   4.0523438e+01   6.0074219e+01
   6.9316406e+01   4.0523438e+01   6.0251953e+01
   6.9138672e+01   4.0523438e+01   6.0074219e+01
   6.9405273e+01   4.0256836e+01   5.9807617e+01
   6.9227539e+01   4.0079102e+01   5.9807617e+01
   6.9316406e+01   4.0345703e+01   6.0429688e+01
   6.9494141e+01   4.0167969e+01   6.0429688e+01
   6.9316406e+01   3.9990234e+01   6.0429688e+01
   6.9138672e+01   4.0167969e+01   6.0429688e+01
   6.8338867e+01   4.0967773e+01   6.0163086e+01
   6.8338867e+01   4.0790039e+01   5.9985352e+01
   6.8960938e+01   4.0878906e+01   6.0251953e+01
   6.8960938e+01   4.1056641e+01   6.0074219e+01
   6.8960938e+01   4.0878906e+01   5.9896484e+01
   6.8960938e+01   4.0701172e+01   6.0074219e+01
   6.8605469e+01   4.1234375e+01   5.9896484e+01
   6.8783203e+01   4.1234375e+01   6.0074219e+01
   6.8605469e+01   4.1234375e+01   6.0251953e+01
   6.8427734e+01   4.1234375e+01   6.0074219e+01
   6.8694336e+01   4.0967773e+01   5.9807617e+01
   6.8516602e+01   4.0790039e+01   5.9807617e+01
   6.8605469e+01   4.1056641e+01   6.0429688e+01
   6.8783203e+01   4.0878906e+01   6.0429688e+01
   6.8605469e+01   4.0701172e+01   6.0429688e+01
   6.8427734e+01   4.0878906e+01   6.0429688e+01
   6.9671875e+01   4.0878906e+01   6.0251953e+01
   6.9671875e+01   4.1056641e+01   6.0074219e+01
   6.9671875e+01   4.0878906e+01   5.9896484e+01
   6.9671875e+01   4.0701172e+01   6.0074219e+01
   6.9316406e+01   4.1234375e+01   5.9896484e+01
   6.9494141e+01   4.1234375e+01   6.0074219e+01
   6.9316406e+01   4.1234375e+01   6.0251953e+01
   6.9138672e+01   4.1234375e+01   6.0074219e+01
   6.9405273e+01   4.0790039e+01   5.9807617e+01
   6.9227539e+01   4.0967773e+01   5.9807617e+01
   6.9316406e+01   4.1056641e+01   6.0429688e+01
   6.9494141e+01   4.0878906e+01   6.0429688e+01
   6.9316406e+01   4.0701172e+01   6.0429688e+01
   6.9138672e+01   4.0878906e+01   6.0429688e+01
   6.8338867e+01   4.0256836e+01   6.0874023e+01
   6.8338867e+01   4.0079102e+01   6.0696289e+01
   6.8960938e+01   4.0167969e+01   6.0962891e+01
   6.8960938e+01   4.0345703e+01   6.0785156e+01
   6.8960938e+01   4.0167969e+01   6.0607422e+01
   6.8960938e+01   3.9990234e+01   6.0785156e+01
   6.8605469e+01   4.0523438e+01   6.0607422e+01
   6.8783203e+01   4.0523438e+01   6.0785156e+01
   6.8605469e+01   4.0523438e+01   6.0962891e+01
   6.8427734e+01   4.0523438e+01   6.0785156e+01
   6.8605469e+01   4.0345703e+01   6.1140625e+01
   6.8783203e+01   4.0167969e+01   6.1140625e+01
   6.8605469e+01   3.9990234e+01   6.1140625e+01
   6.8427734e+01   4.0167969e+01   6.1140625e+01
   6.9671875e+01   4.0167969e+01   6.0962891e+01
   6.9671875e+01   4.0345703e+01   6.0785156e+01
   6.9671875e+01   4.0167969e+01   6.0607422e+01
   6.9671875e+01   3.9990234e+01   6.0785156e+01
   6.9316406e+01   4.0523438e+01   6.0607422e+01
   6.9494141e+01   4.0523438e+01   6.0785156e+01
   6.9316406e+01   4.0523438e+01   6.0962891e+01
   6.9138672e+01   4.0523438e+01   6.0785156e+01
   6.9316406e+01   4.0345703e+01   6.1140625e+01
   6.9494141e+01   4.0167969e+01   6.1140625e+01
   6.9316406e+01   3.9990234e+01   6.1140625e+01
   6.9138672e+01   4.0167969e+01   6.1140625e+01
   6.8338867e+01   4.0967773e+01   6.0696289e+01
   6.8338867e+01   4.0790039e+01   6.0874023e+01
   6.8960938e+01   4.0878906e+01   6.0962891e+01
   6.8960938e+01   4.1056641e+01   6.0785156e+01
   6.8960938e+01   4.0878906e+01   6.0607422e+01
   6.8960938e+01   4.0701172e+01   6.0785156e+01
   6.8605469e+01   4.1234375e+01   6.0607422e+01
   6.8783203e+01   4.1234375e+01   6.0785156e+01
   6.8605469e+01   4.1234375e+01   6.0962891e+01
   6.8427734e+01   4.1234375e+01   6.0785156e+01
   6.8605469e+01   4.1056641e+01   6.1140625e+01
   6.8783203e+01   4.0878906e+01   6.1140625e+01
   6.8605469e+01   4.0701172e+01   6.1140625e+01
   6.8427734e+01   4.0878906e+01   6.1140625e+01
   6.9671875e+01   4.0878906e+01   6.0962891e+01
   6.9671875e+01   4.1056641e+01   6.0785156e+01
   6.9671875e+01   4.0878906e+01   6.0607422e+01
   6.9671875e+01   4.0701172e+01   6.0785156e+01
   6.9316406e+01   4.1234375e+01   6.0607422e+01
   6.9494141e+01   4.1234375e+01   6.0785156e+01
   6.9316406e+01   4.1234375e+01   6.0962891e+01
   6.9138672e+01   4.1234375e+01   6.0785156e+01
   6.9316406e+01   4.1056641e+01   6.1140625e+01
   6.9494141e+01   4.0878906e+01   6.1140625e+01
   6.9316406e+01   4.0701172e+01   6.1140625e+01
   6.9138672e+01   4.0878906e+01   6.1140625e+01
   7.0382812e+01   4.0167969e+01   6.0251953e+01
   7.0382812e+01   4.0345703e+01   6.0074219e+01
   7.0382812e+01   4.0167969e+01   5.9896484e+01
   7.0382812e+01   3.9990234e+01   6.0074219e+01
   7.0027344e+01   4.0523438e+01   5.9896484e+01
   7.0205078e+01   4.0523438e+01   6.0074219e+01
   7.0027344e+01   4.0523438e+01   6.0251953e+01
   6.9849609e+01   4.0523438e+01   6.0074219e+01
   7.0027344e+01   4.0345703e+01   6.0429688e+01
   7.0205078e+01   4.0167969e+01   6.0429688e+01
   7.0027344e+01   3.9990234e+01   6.0429688e+01
   6.9849609e+01   4.0167969e+01   6.0429688e+01
   7.1093750e+01   4.0167969e+01   6.0251953e+01
   7.1093750e+01   4.0345703e+01   6.0074219e+01
   7.1093750e+01   4.0167969e+01   5.9896484e+01
   7.1093750e+01   3.9990234e+01   6.0074219e+01
   7.0738281e+01   4.0523438e+01   5.9896484e+01
   7.0916016e+01   4.0523438e+01   6.0074219e+01
   7.0738281e+01   4.0523438e+01   6.0251953e+01
   7.0560547e+01   4.0523438e+01   6.0074219e+01
   7.0738281e+01   4.0345703e+01   6.0429688e+01
   7.0916016e+01   4.0167969e+01   6.0429688e+01
   7.0738281e+01   3.9990234e+01   6.0429688e+01
   7.0560547e+01   4.0167969e+01   6.0429688e+01
   7.0382812e+01   4.0878906e+01   6.0251953e+01
   7.0382812e+01   4.1056641e+01   6.0074219e+01
   7.0382812e+01   4.0878906e+01   5.9896484e+01
   7.0382812e+01   4.0701172e+01   6.0074219e+01
   7.0027344e+01   4.1234375e+01   5.9896484e+01
   7.0205078e+01   4.1234375e+01   6.0074219e+01
   7.0027344e+01   4.1234375e+01   6.0251953e+01
   6.9849609e+01   4.1234375e+01   6.0074219e+01
   7.0027344e+01   4.1056641e+01   6.0429688e+01
   7.0205078e+01   4.0878906e+01   6.0429688e+01
   7.0027344e+01   4.0701172e+01   6.0429688e+01
   6.9849609e+01   4.0878906e+01   6.0429688e+01
   7.1093750e+01   4.0878906e+01   6.0251953e+01
   7.1093750e+01   4.1056641e+01   6.0074219e+01
   7.1093750e+01   4.0878906e+01   5.9896484e+01
   7.1093750e+01   4.0701172e+01   6.0074219e+01
   7.0738281e+01   4.1234375e+01   5.9896484e+01
   7.0916016e+01   4.1234375e+01   6.0074219e+01
   7.0738281e+01   4.1234375e+01   6.0251953e+01
   7.0560547e+01   4.1234375e+01   6.0074219e+01
   7.0738281e+01   4.1056641e+01   6.0429688e+01
   7.0916016e+01   4.0878906e+01   6.0429688e+01
   7.0738281e+01   4.0701172e+01   6.0429688e+01
   7.0560547e+01   4.0878906e+01   6.0429688e+01
   7.0382812e+01   4.0167969e+01   6.0962891e+01
   7.0382812e+01   4.0345703e+01   6.0785156e+01
   7.0382812e+01   4.0167969e+01   6.0607422e+01
   7.0382812e+01   3.9990234e+01   6.0785156e+01
   7.0027344e+01   4.0523438e+01   6.0607422e+01
   7.0205078e+01   4.0523438e+01   6.0785156e+01
   7.0027344e+01   4.0523438e+01   6.0962891e+01
   6.9849609e+01   4.0523438e+01   6.0785156e+01
   7.0027344e+01   4.0345703e+01   6.1140625e+01
   7.0205078e+01   4.0167969e+01   6.1140625e+01
   7.0027344e+01   3.9990234e+01   6.1140625e+01
   6.9849609e+01   4.0167969e+01   6.1140625e+01
   7.1093750e+01   4.0167969e+01   6.0962891e+01
   7.1093750e+01   4.0345703e+01   6.0785156e+01
   7.1093750e+01   4.0167969e+01   6.0607422e+01
   7.1093750e+01   3.9990234e+01   6.0785156e+01
   7.0738281e+01   4.0523438e+01   6.0607422e+01
   7.0916016e+01   4.0523438e+01   6.0785156e+01
   7.0738281e+01   4.0523438e+01   6.0962891e+01
   7.0560547e+01   4.0523438e+01   6.0785156e+01
   7.0738281e+01   4.0345703e+01   6.1140625e+01
   7.0916016e+01   4.0167969e+01   6.1140625e+01
   7.0738281e+01   3.9990234e+01   6.1140625e+01
   7.0560547e+01   4.0167969e+01   6.1140625e+01
   7.0382812e+01   4.0878906e+01   6.0962891e+01
   7.0382812e+01   4.1056641e+01   6.0785156e+01
   7.0382812e+01   4.0878906e+01   6.0607422e+01
   7.0382812e+01   4.0701172e+01   6.0785156e+01
   7.0027344e+01   4.1234375e+01   6.0607422e+01
   7.0205078e+01   4.1234375e+01   6.0785156e+01
   7.0027344e+01   4.1234375e+01   6.0962891e+01
   6.9849609e+01   4.1234375e+01   6.0785156e+01
   7.0027344e+01   4.1056641e+01   6.1140625e+01
   7.0205078e+01   4.0878906e+01   6.1140625e+01
   7.0027344e+01   4.0701172e+01   6.1140625e+01
   6.9849609e+01   4.0878906e+01   6.1140625e+01
   7.1093750e+01   4.0878906e+01   6.0962891e+01
   7.1093750e+01   4.1056641e+01   6.0785156e+01
   7.1093750e+01   4.0878906e+01   6.0607422e+01
   7.1093750e+01   4.0701172e+01   6.0785156e+01
   7.0738281e+01   4.1234375e+01   6.0607422e+01
   7.0916016e+01   4.1234375e+01   6.0785156e+01
   7.0738281e+01   4.1234375e+01   6.0962891e+01
   7.0560547e+01   4.1234375e+01   6.0785156e+01
   7.0738281e+01   4.1056641e+01   6.1140625e+01
   7.0916016e+01   4.0878906e+01   6.1140625e+01
   7.0738281e+01   4.0701172e+01   6.1140625e+01
   7.0560547e+01   4.0878906e+01   6.1140625e+01
   6.8338867e+01   4.1678711e+01   5.9985352e+01
   6.8338867e+01   4.1500977e+01   6.0163086e+01
   6.8960938e+01   4.1589844e+01   6.0251953e+01
   6.8960938e+01   4.1767578e+01   6.0074219e+01
   6.8960938e+01   4.1589844e+01   5.9896484e+01
   6.8960938e+01   4.1412109e+01   6.0074219e+01
   6.8605469e+01   4.1945312e+01   5.9896484e+01
   6.8783203e+01   4.1945312e+01   6.0074219e+01
   6.8605469e+01   4.1945312e+01   6.0251953e+01
   6.8427734e+01   4.1945312e+01   6.0074219e+01
   6.8694336e+01   4.1500977e+01   5.9807617e+01
   6.8516602e+01   4.1678711e+01   5.9807617e+01
   6.8605469e+01   4.1767578e+01   6.0429688e+01
   6.8783203e+01   4.1589844e+01   6.0429688e+01
   6.8605469e+01   4.1412109e+01   6.0429688e+01
   6.8427734e+01   4.1589844e+01   6.0429688e+01
   6.9671875e+01   4.1589844e+01   6.0251953e+01
   6.9671875e+01   4.1767578e+01   6.0074219e+01
   6.9671875e+01   4.1589844e+01   5.9896484e+01
   6.9671875e+01   4.1412109e+01   6.0074219e+01
   6.9316406e+01   4.1945312e+01   5.9896484e+01
   6.9494141e+01   4.1945312e+01   6.0074219e+01
   6.9316406e+01   4.1945312e+01   6.0251953e+01
   6.9138672e+01   4.1945312e+01   6.0074219e+01
   6.9405273e+01   4.1678711e+01   5.9807617e+01
   6.9227539e+01   4.1500977e+01   5.9807617e+01
   6.9316406e+01   4.1767578e+01   6.0429688e+01
   6.9494141e+01   4.1589844e+01   6.0429688e+01
   6.9316406e+01   4.1412109e+01   6.0429688e+01
   6.9138672e+01   4.1589844e+01   6.0429688e+01
   6.8338867e+01   4.2389648e+01   6.0163086e+01
   6.8338867e+01   4.2211914e+01   5.9985352e+01
   6.8960938e+01   4.2300781e+01   6.0251953e+01
   6.8960938e+01   4.2478516e+01   6.0074219e+01
   6.8960938e+01   4.2300781e+01   5.9896484e+01
   6.8960938e+01   4.2123047e+01   6.0074219e+01
   6.8694336e+01   4.2567383e+01   5.9985352e+01
   6.8516602e+01   4.2567383e+01   6.0163086e+01
   6.8694336e+01   4.2389648e+01   5.9807617e+01
   6.8516602e+01   4.2211914e+01   5.9807617e+01
   6.8605469e+01   4.2478516e+01   6.0429688e+01
   6.8783203e+01   4.2300781e+01   6.0429688e+01
   6.8605469e+01   4.2123047e+01   6.0429688e+01
   6.8427734e+01   4.2300781e+01   6.0429688e+01
   6.9671875e+01   4.2300781e+01   6.0251953e+01
   6.9671875e+01   4.2478516e+01   6.0074219e+01
   6.9671875e+01   4.2300781e+01   5.9896484e+01
   6.9671875e+01   4.2123047e+01   6.0074219e+01
   6.9405273e+01   4.2567383e+01   6.0163086e+01
   6.9227539e+01   4.2567383e+01   5.9985352e+01
   6.9405273e+01   4.2211914e+01   5.9807617e+01
   6.9227539e+01   4.2389648e+01   5.9807617e+01
   6.9316406e+01   4.2478516e+01   6.0429688e+01
   6.9494141e+01   4.2300781e+01   6.0429688e+01
   6.9316406e+01   4.2123047e+01   6.0429688e+01
   6.9138672e+01   4.2300781e+01   6.0429688e+01
   6.8338867e+01   4.1678711e+01   6.0874023e+01
   6.8338867e+01   4.1500977e+01   6.0696289e+01
   6.8960938e+01   4.1589844e+01   6.0962891e+01
   6.8960938e+01   4.1767578e+01   6.0785156e+01
   6.8960938e+01   4.1589844e+01   6.0607422e+01
   6.8960938e+01   4.1412109e+01   6.0785156e+01
   6.8605469e+01   4.1945312e+01   6.0607422e+01
   6.8783203e+01   4.1945312e+01   6.0785156e+01
   6.8605469e+01   4.1945312e+01   6.0962891e+01
   6.8427734e+01   4.1945312e+01   6.0785156e+01
   6.8605469e+01   4.1767578e+01   6.1140625e+01
   6.8783203e+01   4.1589844e+01   6.1140625e+01
   6.8605469e+01   4.1412109e+01   6.1140625e+01
   6.8427734e+01   4.1589844e+01   6.1140625e+01
   6.9671875e+01   4.1589844e+01   6.0962891e+01
   6.9671875e+01   4.1767578e+01   6.0785156e+01
   6.9671875e+01   4.1589844e+01   6.0607422e+01
   6.9671875e+01   4.1412109e+01   6.0785156e+01
   6.9316406e+01   4.1945312e+01   6.0607422e+01
   6.9494141e+01   4.1945312e+01   6.0785156e+01
   6.9316406e+01   4.1945312e+01   6.0962891e+01
   6.9138672e+01   4.1945312e+01   6.0785156e+01
   6.9316406e+01   4.1767578e+01   6.1140625e+01
   6.9494141e+01   4.1589844e+01   6.1140625e+01
   6.9316406e+01   4.1412109e+01   6.1140625e+01
   6.9138672e+01   4.1589844e+01   6.1140625e+01
   6.8338867e+01   4.2389648e+01   6.0696289e+01
   6.8338867e+01   4.2211914e+01   6.0874023e+01
   6.8960938e+01   4.2300781e+01   6.0962891e+01
   6.8960938e+01   4.2478516e+01   6.0785156e+01
   6.8960938e+01   4.2300781e+01   6.0607422e+01
   6.8960938e+01   4.2123047e+01   6.0785156e+01
   6.8694336e+01   4.2567383e+01   6.0874023e+01
   6.8516602e+01   4.2567383e+01   6.0696289e+01
   6.8605469e+01   4.2478516e+01   6.1140625e+01
   6.8783203e+01   4.2300781e+01   6.1140625e+01
   6.8605469e+01   4.2123047e+01   6.1140625e+01
   6.8427734e+01   4.2300781e+01   6.1140625e+01
   6.9671875e+01   4.2300781e+01   6.0962891e+01
   6.9671875e+01   4.2478516e+01   6.0785156e+01
   6.9671875e+01   4.2300781e+01   6.0607422e+01
   6.9671875e+01   4.2123047e+01   6.0785156e+01
   6.9405273e+01   4.2567383e+01   6.0696289e+01
   6.9227539e+01   4.2567383e+01   6.0874023e+01
   6.9316406e+01   4.2478516e+01   6.1140625e+01
   6.9494141e+01   4.2300781e+01   6.1140625e+01
   6.9316406e+01   4.2123047e+01   6.1140625e+01
   6.9138672e+01   4.2300781e+01   6.1140625e+01
   7.0382812e+01   4.1589844e+01   6.0251953e+01
   7.0382812e+01   4.1767578e+01   6.0074219e+01
   7.0382812e+01   4.1589844e+01   5.9896484e+01
   7.0382812e+01   4.1412109e+01   6.0074219e+01
   7.0027344e+01   4.1945312e+01   5.9896484e+01
   7.0205078e+01   4.1945312e+01   6.0074219e+01
   7.0027344e+01   4.1945312e+01   6.0251953e+01
   6.9849609e+01   4.1945312e+01   6.0074219e+01
   7.0027344e+01   4.1767578e+01   6.0429688e+01
   7.0205078e+01   4.1589844e+01   6.0429688e+01
   7.0027344e+01   4.1412109e+01   6.0429688e+01
   6.9849609e+01   4.1589844e+01   6.0429688e+01
   7.1093750e+01   4.1589844e+01   6.0251953e+01
   7.1093750e+01   4.1767578e+01   6.0074219e+01
   7.1093750e+01   4.1589844e+01   5.9896484e+01
   7.1093750e+01   4.1412109e+01   6.0074219e+01
   7.0738281e+01   4.1945312e+01   5.9896484e+01
   7.0916016e+01   4.1945312e+01   6.0074219e+01
   7.0738281e+01   4.1945312e+01   6.0251953e+01
   7.0560547e+01   4.1945312e+01   6.0074219e+01
   7.0738281e+01   4.1767578e+01   6.0429688e+01
   7.0916016e+01   4.1589844e+01   6.0429688e+01
   7.0738281e+01   4.1412109e+01   6.0429688e+01
   7.0560547e+01   4.1589844e+01   6.0429688e+01
   7.0382812e+01   4.2300781e+01   6.0251953e+01
   7.0382812e+01   4.2478516e+01   6.0074219e+01
   7.0382812e+01   4.2300781e+01   5.9896484e+01
   7.0382812e+01   4.2123047e+01   6.0074219e+01
   7.0027344e+01   4.2656250e+01   5.9896484e+01
   7.0205078e+01   4.2656250e+01   6.0074219e+01
   7.0027344e+01   4.2656250e+01   6.0251953e+01
   6.9849609e+01   4.2656250e+01   6.0074219e+01
   7.0027344e+01   4.2478516e+01   6.0429688e+01
   7.0205078e+01   4.2300781e+01   6.0429688e+01
   7.0027344e+01   4.2123047e+01   6.0429688e+01
   6.9849609e+01   4.2300781e+01   6.0429688e+01
   7.1093750e+01   4.2300781e+01   6.0251953e+01
   7.1093750e+01   4.2478516e+01   6.0074219e+01
   7.1093750e+01   4.2300781e+01   5.9896484e+01
   7.1093750e+01   4.2123047e+01   6.0074219e+01
   7.0738281e+01   4.2656250e+01   5.9896484e+01
   7.0916016e+01   4.2656250e+01   6.0074219e+01
   7.0738281e+01   4.2656250e+01   6.0251953e+01
   7.0560547e+01   4.2656250e+01   6.0074219e+01
   7.0738281e+01   4.2478516e+01   6.0429688e+01
   7.0916016e+01   4.2300781e+01   6.0429688e+01
   7.0738281e+01   4.2123047e+01   6.0429688e+01
   7.0560547e+01   4.2300781e+01   6.0429688e+01
   7.0382812e+01   4.1589844e+01   6.0962891e+01
   7.0382812e+01   4.1767578e+01   6.0785156e+01
   7.0382812e+01   4.1589844e+01   6.0607422e+01
   7.0382812e+01   4.1412109e+01   6.0785156e+01
   7.0027344e+01   4.1945312e+01   6.0607422e+01
   7.0205078e+01   4.1945312e+01   6.0785156e+01
   7.0027344e+01   4.1945312e+01   6.0962891e+01
   6.9849609e+01   4.1945312e+01   6.0785156e+01
   7.0027344e+01   4.1767578e+01   6.1140625e+01
   7.0205078e+01   4.1589844e+01   6.1140625e+01
   7.0027344e+01   4.1412109e+01   6.1140625e+01
   6.9849609e+01   4.1589844e+01   6.1140625e+01
   7.1093750e+01   4.1589844e+01   6.0962891e+01
   7.1093750e+01   4.1767578e+01   6.0785156e+01
   7.1093750e+01   4.1589844e+01   6.0607422e+01
   7.1093750e+01   4.1412109e+01   6.0785156e+01
   7.0738281e+01   4.1945312e+01   6.0607422e+01
   7.0916016e+01   4.1945312e+01   6.0785156e+01
   7.0738281e+01   4.1945312e+01   6.0962891e+01
   7.0560547e+01   4.1945312e+01   6.0785156e+01
   7.0738281e+01   4.1767578e+01   6.1140625e+01
   7.0916016e+01   4.1589844e+01   6.1140625e+01
   7.0738281e+01   4.1412109e+01   6.1140625e+01
   7.0560547e+01   4.1589844e+01   6.1140625e+01
   7.0382812e+01   4.2300781e+01   6.0962891e+01
   7.0382812e+01   4.2478516e+01   6.0785156e+01
   7.0382812e+01   4.2300781e+01   6.0607422e+01
   7.0382812e+01   4.2123047e+01   6.0785156e+01
   7.0027344e+01   4.2656250e+01   6.0607422e+01
   7.0205078e+01   4.2656250e+01   6.0785156e+01
   7.0027344e+01   4.2656250e+01   6.0962891e+01
   6.9849609e+01   4.2656250e+01   6.0785156e+01
   7.0027344e+01   4.2478516e+01   6.1140625e+01
   7.0205078e+01   4.2300781e+01   6.1140625e+01
   7.0027344e+01   4.2123047e+01   6.1140625e+01
   6.9849609e+01   4.2300781e+01   6.1140625e+01
   7.1093750e+01   4.2300781e+01   6.0962891e+01
   7.1093750e+01   4.2478516e+01   6.0785156e+01
   7.1093750e+01   4.2300781e+01   6.0607422e+01
   7.1093750e+01   4.2123047e+01   6.0785156e+01
   7.0738281e+01   4.2656250e+01   6.0607422e+01
   7.0916016e+01   4.2656250e+01   6.0785156e+01
   7.0738281e+01   4.2656250e+01   6.0962891e+01
   7.0560547e+01   4.2656250e+01   6.0785156e+01
   7.0738281e+01   4.2478516e+01   6.1140625e+01
   7.0916016e+01   4.2300781e+01   6.1140625e+01
   7.0738281e+01   4.2123047e+01   6.1140625e+01
   7.0560547e+01   4.2300781e+01   6.1140625e+01
   6.8960938e+01   4.0167969e+01   6.1673828e+01
   6.8960938e+01   4.0345703e+01   6.1496094e+01
   6.8960938e+01   4.0167969e+01   6.1318359e+01
   6.8960938e+01   3.9990234e+01   6.1496094e+01
   6.8605469e+01   4.0523438e+01   6.1318359e+01
   6.8783203e+01   4.0523438e+01   6.1496094e+01
   6.8605469e+01   4.0523438e+01   6.1673828e+01
   6.8427734e+01   4.0523438e+01   6.1496094e+01
   6.8605469e+01   4.0345703e+01   6.1851562e+01
   6.8783203e+01   4.0167969e+01   6.1851562e+01
   6.8605469e+01   3.9990234e+01   6.1851562e+01
   6.8427734e+01   4.0167969e+01   6.1851562e+01
   6.9671875e+01   4.0167969e+01   6.1673828e+01
   6.9671875e+01   4.0345703e+01   6.1496094e+01
   6.9671875e+01   4.0167969e+01   6.1318359e+01
   6.9671875e+01   3.9990234e+01   6.1496094e+01
   6.9316406e+01   4.0523438e+01   6.1318359e+01
   6.9494141e+01   4.0523438e+01   6.1496094e+01
   6.9316406e+01   4.0523438e+01   6.1673828e+01
   6.9138672e+01   4.0523438e+01   6.1496094e+01
   6.9316406e+01   4.0345703e+01   6.1851562e+01
   6.9494141e+01   4.0167969e+01   6.1851562e+01
   6.9316406e+01   3.9990234e+01   6.1851562e+01
   6.9138672e+01   4.0167969e+01   6.1851562e+01
   6.8960938e+01   4.0878906e+01   6.1673828e+01
   6.8960938e+01   4.1056641e+01   6.1496094e+01
   6.8960938e+01   4.0878906e+01   6.1318359e+01
   6.8960938e+01   4.0701172e+01   6.1496094e+01
   6.8605469e+01   4.1234375e+01   6.1318359e+01
   6.8783203e+01   4.1234375e+01   6.1496094e+01
   6.8605469e+01   4.1234375e+01   6.1673828e+01
   6.8427734e+01   4.1234375e+01   6.1496094e+01
   6.8605469e+01   4.1056641e+01   6.1851562e+01
   6.8783203e+01   4.0878906e+01   6.1851562e+01
   6.8605469e+01   4.0701172e+01   6.1851562e+01
   6.8427734e+01   4.0878906e+01   6.1851562e+01
   6.9671875e+01   4.0878906e+01   6.1673828e+01
   6.9671875e+01   4.1056641e+01   6.1496094e+01
   6.9671875e+01   4.0878906e+01   6.1318359e+01
   6.9671875e+01   4.0701172e+01   6.1496094e+01
   6.9316406e+01   4.1234375e+01   6.1318359e+01
   6.9494141e+01   4.1234375e+01   6.1496094e+01
   6.9316406e+01   4.1234375e+01   6.1673828e+01
   6.9138672e+01   4.1234375e+01   6.1496094e+01
   6.9316406e+01   4.1056641e+01   6.1851562e+01
   6.9494141e+01   4.0878906e+01   6.1851562e+01
   6.9316406e+01   4.0701172e+01   6.1851562e+01
   6.9138672e+01   4.0878906e+01   6.1851562e+01
   6.8960938e+01   4.0167969e+01   6.2384766e+01
   6.8960938e+01   4.0345703e+01   6.2207031e+01
   6.8960938e+01   4.0167969e+01   6.2029297e+01
   6.8960938e+01   3.9990234e+01   6.2207031e+01
   6.8605469e+01   4.0523438e+01   6.2029297e+01
   6.8783203e+01   4.0523438e+01   6.2207031e+01
   6.8605469e+01   4.0523438e+01   6.2384766e+01
   6.8427734e+01   4.0523438e+01   6.2207031e+01
   6.8605469e+01   4.0345703e+01   6.2562500e+01
   6.8783203e+01   4.0167969e+01   6.2562500e+01
   6.8605469e+01   3.9990234e+01   6.2562500e+01
   6.8427734e+01   4.0167969e+01   6.2562500e+01
   6.9671875e+01   4.0167969e+01   6.2384766e+01
   6.9671875e+01   4.0345703e+01   6.2207031e+01
   6.9671875e+01   4.0167969e+01   6.2029297e+01
   6.9671875e+01   3.9990234e+01   6.2207031e+01
   6.9316406e+01   4.0523438e+01   6.2029297e+01
   6.9494141e+01   4.0523438e+01   6.2207031e+01
   6.9316406e+01   4.0523438e+01   6.2384766e+01
   6.9138672e+01   4.0523438e+01   6.2207031e+01
   6.9316406e+01   4.0345703e+01   6.2562500e+01
   6.9494141e+01   4.0167969e+01   6.2562500e+01
   6.9316406e+01   3.9990234e+01   6.2562500e+01
   6.9138672e+01   4.0167969e+01   6.2562500e+01
   6.8960938e+01   4.0878906e+01   6.2384766e+01
   6.8960938e+01   4.1056641e+01   6.2207031e+01
   6.8960938e+01   4.0878906e+01   6.2029297e+01
   6.8960938e+01   4.0701172e+01   6.2207031e+01
   6.8605469e+01   4.1234375e+01   6.2029297e+01
   6.8783203e+01   4.1234375e+01   6.2207031e+01
   6.8605469e+01   4.1234375e+01   6.2384766e+01
   6.8427734e+01   4.1234375e+01   6.2207031e+01
   6.8605469e+01   4.1056641e+01   6.2562500e+01
   6.8783203e+01   4.0878906e+01   6.2562500e+01
   6.8605469e+01   4.0701172e+01   6.2562500e+01
   6.8427734e+01   4.0878906e+01   6.2562500e+01
   6.9671875e+01   4.0878906e+01   6.2384766e+01
   6.9671875e+01   4.1056641e+01   6.2207031e+01
   6.9671875e+01   4.0878906e+01   6.2029297e+01
   6.9671875e+01   4.0701172e+01   6.2207031e+01
   6.9316406e+01   4.1234375e+01   6.2029297e+01
   6.9494141e+01   4.1234375e+01   6.2207031e+01
   6.9316406e+01   4.1234375e+01   6.2384766e+01
   6.9138672e+01   4.1234375e+01   6.2207031e+01
   6.9316406e+01   4.1056641e+01   6.2562500e+01
   6.9494141e+01   4.0878906e+01   6.2562500e+01
   6.9316406e+01   4.0701172e+01   6.2562500e+01
   6.9138672e+01   4.0878906e+01   6.2562500e+01
   7.0382812e+01   4.0167969e+01   6.1673828e+01
   7.0382812e+01   4.0345703e+01   6.1496094e+01
   7.0382812e+01   4.0167969e+01   6.1318359e+01
   7.0382812e+01   3.9990234e+01   6.1496094e+01
   7.0027344e+01   4.0523438e+01   6.1318359e+01
   7.0205078e+01   4.0523438e+01   6.1496094e+01
   7.0027344e+01   4.0523438e+01   6.1673828e+01
   6.9849609e+01   4.0523438e+01   6.1496094e+01
   7.0027344e+01   4.0345703e+01   6.1851562e+01
   7.0205078e+01   4.0167969e+01   6.1851562e+01
   7.0027344e+01   3.9990234e+01   6.1851562e+01
   6.9849609e+01   4.0167969e+01   6.1851562e+01
   7.1093750e+01   4.0167969e+01   6.1673828e+01
   7.1093750e+01   4.0345703e+01   6.1496094e+01
   7.1093750e+01   4.0167969e+01   6.1318359e+01
   7.1093750e+01   3.9990234e+01   6.1496094e+01
   7.0738281e+01   4.0523438e+01   6.1318359e+01
   7.0916016e+01   4.0523438e+01   6.1496094e+01
   7.0738281e+01   4.0523438e+01   6.1673828e+01
   7.0560547e+01   4.0523438e+01   6.1496094e+01
   7.0738281e+01   4.0345703e+01   6.1851562e+01
   7.0916016e+01   4.0167969e+01   6.1851562e+01
   7.0738281e+01   3.9990234e+01   6.1851562e+01
   7.0560547e+01   4.0167969e+01   6.1851562e+01
   7.0382812e+01   4.0878906e+01   6.1673828e+01
   7.0382812e+01   4.1056641e+01   6.1496094e+01
   7.0382812e+01   4.0878906e+01   6.1318359e+01
   7.0382812e+01   4.0701172e+01   6.1496094e+01
   7.0027344e+01   4.1234375e+01   6.1318359e+01
   7.0205078e+01   4.1234375e+01   6.1496094e+01
   7.0027344e+01   4.1234375e+01   6.1673828e+01
   6.9849609e+01   4.1234375e+01   6.1496094e+01
   7.0027344e+01   4.1056641e+01   6.1851562e+01
   7.0205078e+01   4.0878906e+01   6.1851562e+01
   7.0027344e+01   4.0701172e+01   6.1851562e+01
   6.9849609e+01   4.0878906e+01   6.1851562e+01
   7.1093750e+01   4.0878906e+01   6.1673828e+01
   7.1093750e+01   4.1056641e+01   6.1496094e+01
   7.1093750e+01   4.0878906e+01   6.1318359e+01
   7.1093750e+01   4.0701172e+01   6.1496094e+01
   7.0738281e+01   4.1234375e+01   6.1318359e+01
   7.0916016e+01   4.1234375e+01   6.1496094e+01
   7.0738281e+01   4.1234375e+01   6.1673828e+01
   7.0560547e+01   4.1234375e+01   6.1496094e+01
   7.0738281e+01   4.1056641e+01   6.1851562e+01
   7.0916016e+01   4.0878906e+01   6.1851562e+01
   7.0738281e+01   4.0701172e+01   6.1851562e+01
   7.0560547e+01   4.0878906e+01   6.1851562e+01
   7.0382812e+01   4.0167969e+01   6.2384766e+01
   7.0382812e+01   4.0345703e+01   6.2207031e+01
   7.0382812e+01   4.0167969e+01   6.2029297e+01
   7.0382812e+01   3.9990234e+01   6.2207031e+01
   7.0027344e+01   4.0523438e+01   6.2029297e+01
   7.0205078e+01   4.0523438e+01   6.2207031e+01
   7.0027344e+01   4.0523438e+01   6.2384766e+01
   6.9849609e+01   4.0523438e+01   6.2207031e+01
   7.0027344e+01   4.0345703e+01   6.2562500e+01
   7.0205078e+01   4.0167969e+01   6.2562500e+01
   7.0027344e+01   3.9990234e+01   6.2562500e+01
   6.9849609e+01   4.0167969e+01   6.2562500e+01
   7.1093750e+01   4.0167969e+01   6.2384766e+01
   7.1093750e+01   4.0345703e+01   6.2207031e+01
   7.1093750e+01   4.0167969e+01   6.2029297e+01
   7.1093750e+01   3.9990234e+01   6.2207031e+01
   7.0738281e+01   4.0523438e+01   6.2029297e+01
   7.0916016e+01   4.0523438e+01   6.2207031e+01
   7.0738281e+01   4.0523438e+01   6.2384766e+01
   7.0560547e+01   4.0523438e+01   6.2207031e+01
   7.0738281e+01   4.0345703e+01   6.2562500e+01
   7.0916016e+01   4.0167969e+01   6.2562500e+01
   7.0738281e+01   3.9990234e+01   6.2562500e+01
   7.0560547e+01   4.0167969e+01   6.2562500e+01
   7.0382812e+01   4.0878906e+01   6.2384766e+01
   7.0382812e+01   4.1056641e+01   6.2207031e+01
   7.0382812e+01   4.0878906e+01   6.2029297e+01
   7.0382812e+01   4.0701172e+01   6.2207031e+01
   7.0027344e+01   4.1234375e+01   6.2029297e+01
   7.0205078e+01   4.1234375e+01   6.2207031e+01
   7.0027344e+01   4.1234375e+01   6.2384766e+01
   6.9849609e+01   4.1234375e+01   6.2207031e+01
   7.0027344e+01   4.1056641e+01   6.2562500e+01
   7.0205078e+01   4.0878906e+01   6.2562500e+01
   7.0027344e+01   4.0701172e+01   6.2562500e+01
   6.9849609e+01   4.0878906e+01   6.2562500e+01
   7.1093750e+01   4.0878906e+01   6.2384766e+01
   7.1093750e+01   4.1056641e+01   6.2207031e+01
   7.1093750e+01   4.0878906e+01   6.2029297e+01
   7.1093750e+01   4.0701172e+01   6.2207031e+01
   7.0738281e+01   4.1234375e+01   6.2029297e+01
   7.0916016e+01   4.1234375e+01   6.2207031e+01
   7.0738281e+01   4.1234375e+01   6.2384766e+01
   7.0560547e+01   4.1234375e+01   6.2207031e+01
   7.0738281e+01   4.1056641e+01   6.2562500e+01
   7.0916016e+01   4.0878906e+01   6.2562500e+01
   7.0738281e+01   4.0701172e+01   6.2562500e+01
   7.0560547e+01   4.0878906e+01   6.2562500e+01
   6.8960938e+01   4.1589844e+01   6.1673828e+01
   6.8960938e+01   4.1767578e+01   6.1496094e+01
   6.8960938e+01   4.1589844e+01   6.1318359e+01
