   6.0429688e+01   4.5500000e+01   6.0074219e+01
   6.0785156e+01   4.5500000e+01   6.0429688e+01
   6.0429688e+01   4.5500000e+01   6.0785156e+01
   6.1851562e+01   4.5500000e+01   6.0074219e+01
   6.2207031e+01   4.5500000e+01   6.0429688e+01
   6.1851562e+01   4.5500000e+01   6.0785156e+01
   6.1496094e+01   4.5500000e+01   6.0429688e+01
   6.1851562e+01   4.5144531e+01   6.1140625e+01
   6.1140625e+01   4.5144531e+01   6.1851562e+01
   6.2562500e+01   4.4789062e+01   6.2207031e+01
   6.2562500e+01   4.5144531e+01   6.1851562e+01
   6.1851562e+01   4.5500000e+01   6.1496094e+01
   6.2207031e+01   4.5500000e+01   6.1851562e+01
   6.1851562e+01   4.5500000e+01   6.2207031e+01
   6.1496094e+01   4.5500000e+01   6.1851562e+01
   6.1851562e+01   4.5144531e+01   6.2562500e+01
   6.2207031e+01   4.4789062e+01   6.2562500e+01
   6.1496094e+01   4.4789062e+01   6.2562500e+01
   6.3273438e+01   4.5500000e+01   6.2207031e+01
   6.2917969e+01   4.5500000e+01   6.1851562e+01
   6.3273438e+01   4.5144531e+01   6.2562500e+01
   6.3628906e+01   4.4789062e+01   6.2562500e+01
   6.2917969e+01   4.4789062e+01   6.2562500e+01
   6.2562500e+01   4.4789062e+01   6.3628906e+01
   6.2562500e+01   4.5144531e+01   6.3273438e+01
   6.2562500e+01   4.4789062e+01   6.2917969e+01
   6.1851562e+01   4.5500000e+01   6.2917969e+01
   6.2207031e+01   4.5500000e+01   6.3273438e+01
   6.2562500e+01   4.4789062e+01   6.4339844e+01
   6.3984375e+01   4.4789062e+01   6.3628906e+01
   6.3984375e+01   4.5144531e+01   6.3273438e+01
   6.3984375e+01   4.4789062e+01   6.2917969e+01
   6.3984375e+01   4.4433594e+01   6.3273438e+01
   6.3273438e+01   4.5500000e+01   6.2917969e+01
   6.3628906e+01   4.5500000e+01   6.3273438e+01
   6.3273438e+01   4.5500000e+01   6.3628906e+01
   6.2917969e+01   4.5500000e+01   6.3273438e+01
   6.3273438e+01   4.5144531e+01   6.3984375e+01
   6.3628906e+01   4.4789062e+01   6.3984375e+01
   6.3273438e+01   4.4433594e+01   6.3984375e+01
   6.2917969e+01   4.4789062e+01   6.3984375e+01
   6.4339844e+01   4.4789062e+01   6.3984375e+01
   6.3628906e+01   4.4078125e+01   6.4695312e+01
   6.3273438e+01   4.4078125e+01   6.5050781e+01
   6.4695312e+01   4.4078125e+01   6.4339844e+01
   6.5050781e+01   4.4078125e+01   6.4873047e+01
   6.4873047e+01   4.4078125e+01   6.5050781e+01
   6.4517578e+01   4.4078125e+01   6.5050781e+01
   6.4339844e+01   4.4078125e+01   6.4695312e+01
   6.3984375e+01   4.4789062e+01   6.5050781e+01
   6.3984375e+01   4.5144531e+01   6.4695312e+01
   6.3984375e+01   4.4789062e+01   6.4339844e+01
   6.3984375e+01   4.4433594e+01   6.4695312e+01
   6.3273438e+01   4.5500000e+01   6.4339844e+01
   6.3628906e+01   4.5500000e+01   6.4695312e+01
   6.3273438e+01   4.5500000e+01   6.5050781e+01
   6.2917969e+01   4.5500000e+01   6.4695312e+01
   6.3273438e+01   4.5144531e+01   6.5406250e+01
   6.3628906e+01   4.4789062e+01   6.5406250e+01
   6.3273438e+01   4.4433594e+01   6.5406250e+01
   6.4695312e+01   4.5500000e+01   6.4339844e+01
   6.4695312e+01   4.5500000e+01   6.5050781e+01
   6.4339844e+01   4.5500000e+01   6.4695312e+01
   6.4695312e+01   4.5144531e+01   6.5406250e+01
   6.5050781e+01   4.4966797e+01   6.5406250e+01
   6.5050781e+01   4.4611328e+01   6.5406250e+01
   6.4873047e+01   4.4433594e+01   6.5406250e+01
   6.4517578e+01   4.4433594e+01   6.5406250e+01
   6.4339844e+01   4.4789062e+01   6.5406250e+01
   6.3806641e+01   4.3722656e+01   6.6294922e+01
   6.3806641e+01   4.3722656e+01   6.5939453e+01
   6.3628906e+01   4.4078125e+01   6.5939453e+01
   6.3984375e+01   4.4611328e+01   6.6472656e+01
   6.3984375e+01   4.4966797e+01   6.6472656e+01
   6.3984375e+01   4.5144531e+01   6.6117188e+01
   6.3984375e+01   4.4789062e+01   6.5761719e+01
   6.3984375e+01   4.4433594e+01   6.5939453e+01
   6.3984375e+01   4.4433594e+01   6.6294922e+01
   6.3628906e+01   4.5500000e+01   6.6117188e+01
   6.5228516e+01   4.4611328e+01   6.6472656e+01
   6.5228516e+01   4.4966797e+01   6.6472656e+01
   6.5228516e+01   4.5144531e+01   6.6294922e+01
   6.5228516e+01   4.5144531e+01   6.5939453e+01
   6.5228516e+01   4.4966797e+01   6.5761719e+01
   6.5228516e+01   4.4611328e+01   6.5761719e+01
   6.5228516e+01   4.4433594e+01   6.5939453e+01
   6.5228516e+01   4.4433594e+01   6.6294922e+01
   6.4517578e+01   4.4255859e+01   6.6472656e+01
   6.4873047e+01   4.4255859e+01   6.6472656e+01
   6.5050781e+01   4.4255859e+01   6.6294922e+01
   6.5050781e+01   4.4255859e+01   6.5939453e+01
   6.4873047e+01   4.4255859e+01   6.5761719e+01
   6.4517578e+01   4.4255859e+01   6.5761719e+01
   6.4339844e+01   4.4255859e+01   6.5939453e+01
   6.4339844e+01   4.4255859e+01   6.6294922e+01
   6.4695312e+01   4.5500000e+01   6.5761719e+01
   6.5050781e+01   4.5500000e+01   6.5939453e+01
   6.5050781e+01   4.5500000e+01   6.6294922e+01
   6.4873047e+01   4.5500000e+01   6.6472656e+01
   6.4517578e+01   4.5500000e+01   6.6472656e+01
   6.4339844e+01   4.5500000e+01   6.6117188e+01
   6.4517578e+01   4.5144531e+01   6.6650391e+01
   6.4873047e+01   4.5144531e+01   6.6650391e+01
   6.5050781e+01   4.4966797e+01   6.6650391e+01
   6.5050781e+01   4.4611328e+01   6.6650391e+01
   6.4873047e+01   4.4433594e+01   6.6650391e+01
   6.4517578e+01   4.4433594e+01   6.6650391e+01
   6.4339844e+01   4.4611328e+01   6.6650391e+01
   6.4339844e+01   4.4966797e+01   6.6650391e+01
   6.1140625e+01   4.6210938e+01   5.9363281e+01
   6.1140625e+01   4.6566406e+01   5.9185547e+01
   6.1140625e+01   4.5855469e+01   5.9007812e+01
   6.0251953e+01   4.6566406e+01   5.9718750e+01
   6.0607422e+01   4.6566406e+01   5.9718750e+01
   6.0785156e+01   4.6210938e+01   5.9718750e+01
   6.0429688e+01   4.5855469e+01   5.9718750e+01
   6.0074219e+01   4.6033203e+01   5.9718750e+01
   6.1496094e+01   4.6921875e+01   5.9185547e+01
   6.1851562e+01   4.6566406e+01   5.9718750e+01
   6.1851562e+01   4.5855469e+01   5.9718750e+01
   6.1496094e+01   4.6210938e+01   5.9718750e+01
   6.1318359e+01   4.7455078e+01   5.9363281e+01
   6.1851562e+01   4.7277344e+01   5.9718750e+01
   6.1496094e+01   4.7455078e+01   5.9718750e+01
   6.1140625e+01   4.6210938e+01   6.0785156e+01
   6.1140625e+01   4.6566406e+01   6.0429688e+01
   6.1140625e+01   4.6210938e+01   6.0074219e+01
   6.1140625e+01   4.5855469e+01   6.0429688e+01
   6.0251953e+01   4.6921875e+01   6.0074219e+01
   6.0607422e+01   4.6921875e+01   6.0074219e+01
   6.0785156e+01   4.6921875e+01   6.0429688e+01
   6.0429688e+01   4.6921875e+01   6.0785156e+01
   6.0074219e+01   4.6921875e+01   6.0251953e+01
   6.0785156e+01   4.6210938e+01   6.1140625e+01
   6.2562500e+01   4.6210938e+01   6.0785156e+01
   6.1851562e+01   4.6921875e+01   6.0074219e+01
   6.2207031e+01   4.6921875e+01   6.0429688e+01
   6.1851562e+01   4.6921875e+01   6.0785156e+01
   6.1496094e+01   4.6921875e+01   6.0429688e+01
   6.1851562e+01   4.6566406e+01   6.1140625e+01
   6.2207031e+01   4.6210938e+01   6.1140625e+01
   6.1851562e+01   4.5855469e+01   6.1140625e+01
   6.1496094e+01   4.6210938e+01   6.1140625e+01
   5.9896484e+01   4.7277344e+01   6.0251953e+01
   6.1140625e+01   4.7277344e+01   6.0429688e+01
   6.0251953e+01   4.7277344e+01   5.9896484e+01
   6.0607422e+01   4.7277344e+01   5.9896484e+01
   6.0785156e+01   4.7455078e+01   5.9896484e+01
   6.1140625e+01   4.6210938e+01   6.2207031e+01
   6.1140625e+01   4.6566406e+01   6.1851562e+01
   6.1140625e+01   4.6210938e+01   6.1496094e+01
   6.1140625e+01   4.5855469e+01   6.1851562e+01
   6.2562500e+01   4.6210938e+01   6.2207031e+01
   6.2562500e+01   4.6566406e+01   6.1851562e+01
   6.2562500e+01   4.6210938e+01   6.1496094e+01
   6.2562500e+01   4.5855469e+01   6.1851562e+01
   6.1851562e+01   4.6921875e+01   6.1496094e+01
   6.2207031e+01   4.6921875e+01   6.1851562e+01
   6.1496094e+01   4.6921875e+01   6.1851562e+01
   6.1851562e+01   4.6566406e+01   6.2562500e+01
   6.2207031e+01   4.6210938e+01   6.2562500e+01
   6.1851562e+01   4.5855469e+01   6.2562500e+01
   6.1496094e+01   4.6210938e+01   6.2562500e+01
   6.3273438e+01   4.6566406e+01   6.2562500e+01
   6.3628906e+01   4.6210938e+01   6.2562500e+01
   6.3273438e+01   4.5855469e+01   6.2562500e+01
   6.2917969e+01   4.6210938e+01   6.2562500e+01
   6.2562500e+01   4.6210938e+01   6.3628906e+01
   6.2562500e+01   4.6210938e+01   6.2917969e+01
   6.2562500e+01   4.5855469e+01   6.3273438e+01
   6.2207031e+01   4.6210938e+01   6.3984375e+01
   6.2562500e+01   4.6210938e+01   6.4339844e+01
   6.3984375e+01   4.6210938e+01   6.3628906e+01
   6.3984375e+01   4.5855469e+01   6.3273438e+01
   6.3628906e+01   4.6210938e+01   6.3984375e+01
   6.3273438e+01   4.5855469e+01   6.3984375e+01
   6.2917969e+01   4.6210938e+01   6.3984375e+01
   6.4339844e+01   4.6210938e+01   6.3984375e+01
   6.3984375e+01   4.5855469e+01   6.4695312e+01
   6.3273438e+01   4.5855469e+01   6.5406250e+01
   6.4695312e+01   4.5855469e+01   6.5406250e+01
   6.4073242e+01   4.3811523e+01   6.5850586e+01
   6.4695312e+01   4.3722656e+01   6.5939453e+01
   6.4695312e+01   4.3900391e+01   6.5761719e+01
   6.4428711e+01   4.3989258e+01   6.5672852e+01
   6.4250977e+01   4.3989258e+01   6.5850586e+01
   6.4428711e+01   4.3811523e+01   6.5495117e+01
   6.4339844e+01   4.3900391e+01   6.6117188e+01
   6.4517578e+01   4.3722656e+01   6.6117188e+01
   6.4162109e+01   4.3722656e+01   6.6117188e+01
   6.5406250e+01   4.3722656e+01   6.5939453e+01
   6.5406250e+01   4.3900391e+01   6.5761719e+01
   6.5406250e+01   4.3722656e+01   6.5583984e+01
   6.5139648e+01   4.3989258e+01   6.5850586e+01
   6.4961914e+01   4.3989258e+01   6.5672852e+01
   6.4961914e+01   4.3811523e+01   6.5495117e+01
   6.5050781e+01   4.3900391e+01   6.6117188e+01
   6.5228516e+01   4.3722656e+01   6.6117188e+01
   6.4873047e+01   4.3722656e+01   6.6117188e+01
   6.4073242e+01   4.3811523e+01   6.6383789e+01
   6.4073242e+01   4.3633789e+01   6.6561523e+01
   6.4695312e+01   4.3722656e+01   6.6650391e+01
   6.4695312e+01   4.3900391e+01   6.6472656e+01
   6.4695312e+01   4.3722656e+01   6.6294922e+01
   6.4695312e+01   4.3544922e+01   6.6472656e+01
   6.4428711e+01   4.3989258e+01   6.6561523e+01
   6.4250977e+01   4.3989258e+01   6.6383789e+01
   6.4339844e+01   4.3900391e+01   6.6828125e+01
   6.4517578e+01   4.3722656e+01   6.6828125e+01
   6.4339844e+01   4.3544922e+01   6.6828125e+01
   6.4162109e+01   4.3722656e+01   6.6828125e+01
   6.5406250e+01   4.3722656e+01   6.6650391e+01
   6.5406250e+01   4.3900391e+01   6.6472656e+01
   6.5406250e+01   4.3722656e+01   6.6294922e+01
   6.5406250e+01   4.3544922e+01   6.6472656e+01
   6.5139648e+01   4.3989258e+01   6.6383789e+01
   6.4961914e+01   4.3989258e+01   6.6561523e+01
   6.5050781e+01   4.3900391e+01   6.6828125e+01
   6.5228516e+01   4.3722656e+01   6.6828125e+01
   6.5050781e+01   4.3544922e+01   6.6828125e+01
   6.4873047e+01   4.3722656e+01   6.6828125e+01
   6.4517578e+01   4.3367188e+01   6.7183594e+01
   6.5050781e+01   4.3367188e+01   6.7005859e+01
   6.5228516e+01   4.3367188e+01   6.7183594e+01
   6.5050781e+01   4.3367188e+01   6.7361328e+01
   6.4873047e+01   4.3367188e+01   6.7183594e+01
   6.4695312e+01   4.3722656e+01   6.7361328e+01
   6.4695312e+01   4.3900391e+01   6.7183594e+01
   6.4695312e+01   4.3722656e+01   6.7005859e+01
   6.4695312e+01   4.3544922e+01   6.7183594e+01
   6.4339844e+01   4.4078125e+01   6.7005859e+01
   6.4517578e+01   4.4078125e+01   6.7183594e+01
   6.5406250e+01   4.3722656e+01   6.7361328e+01
   6.5406250e+01   4.3900391e+01   6.7183594e+01
   6.5406250e+01   4.3722656e+01   6.7005859e+01
   6.5406250e+01   4.3544922e+01   6.7183594e+01
   6.5050781e+01   4.4078125e+01   6.7005859e+01
   6.5228516e+01   4.4078125e+01   6.7183594e+01
   6.5050781e+01   4.4078125e+01   6.7361328e+01
   6.4873047e+01   4.4078125e+01   6.7183594e+01
   6.5050781e+01   4.3900391e+01   6.7539062e+01
   6.5228516e+01   4.3722656e+01   6.7539062e+01
   6.5050781e+01   4.3544922e+01   6.7539062e+01
   6.4873047e+01   4.3722656e+01   6.7539062e+01
   6.5406250e+01   4.3189453e+01   6.7894531e+01
   6.5050781e+01   4.3367188e+01   6.7716797e+01
   6.5228516e+01   4.3367188e+01   6.7894531e+01
   6.5050781e+01   4.3367188e+01   6.8072266e+01
   6.4873047e+01   4.3367188e+01   6.7894531e+01
   6.5050781e+01   4.3189453e+01   6.8250000e+01
   6.4695312e+01   4.3722656e+01   6.7716797e+01
   6.5406250e+01   4.3722656e+01   6.8072266e+01
   6.5406250e+01   4.3900391e+01   6.7894531e+01
   6.5406250e+01   4.3722656e+01   6.7716797e+01
   6.5406250e+01   4.3544922e+01   6.7894531e+01
   6.5050781e+01   4.4078125e+01   6.7716797e+01
   6.5228516e+01   4.4078125e+01   6.7894531e+01
   6.5050781e+01   4.4078125e+01   6.8072266e+01
   6.4873047e+01   4.4078125e+01   6.7894531e+01
   6.5050781e+01   4.3900391e+01   6.8250000e+01
   6.5228516e+01   4.3722656e+01   6.8250000e+01
   6.5050781e+01   4.3544922e+01   6.8250000e+01
   6.4695312e+01   4.4433594e+01   6.7361328e+01
   6.4695312e+01   4.4611328e+01   6.7183594e+01
   6.4695312e+01   4.4433594e+01   6.7005859e+01
   6.4695312e+01   4.4255859e+01   6.7183594e+01
   6.4339844e+01   4.4789062e+01   6.7005859e+01
   6.4517578e+01   4.4789062e+01   6.7183594e+01
   6.4339844e+01   4.4789062e+01   6.7361328e+01
   6.4428711e+01   4.4344727e+01   6.6916992e+01
   6.4250977e+01   4.4522461e+01   6.6916992e+01
   6.4517578e+01   4.4433594e+01   6.7539062e+01
   6.5406250e+01   4.4433594e+01   6.7361328e+01
   6.5406250e+01   4.4611328e+01   6.7183594e+01
   6.5406250e+01   4.4433594e+01   6.7005859e+01
   6.5406250e+01   4.4255859e+01   6.7183594e+01
   6.5050781e+01   4.4789062e+01   6.7005859e+01
   6.5228516e+01   4.4789062e+01   6.7183594e+01
   6.5050781e+01   4.4789062e+01   6.7361328e+01
   6.4873047e+01   4.4789062e+01   6.7183594e+01
   6.5139648e+01   4.4522461e+01   6.6916992e+01
   6.4961914e+01   4.4344727e+01   6.6916992e+01
   6.5050781e+01   4.4611328e+01   6.7539062e+01
   6.5228516e+01   4.4433594e+01   6.7539062e+01
   6.5050781e+01   4.4255859e+01   6.7539062e+01
   6.4873047e+01   4.4433594e+01   6.7539062e+01
   6.4695312e+01   4.5144531e+01   6.7361328e+01
   6.4695312e+01   4.5322266e+01   6.7183594e+01
   6.4695312e+01   4.5144531e+01   6.7005859e+01
   6.4695312e+01   4.4966797e+01   6.7183594e+01
   6.4428711e+01   4.5233398e+01   6.6916992e+01
   6.4250977e+01   4.5055664e+01   6.6916992e+01
   6.4517578e+01   4.5144531e+01   6.7539062e+01
   6.5406250e+01   4.5144531e+01   6.7361328e+01
   6.5406250e+01   4.5322266e+01   6.7183594e+01
   6.5406250e+01   4.5144531e+01   6.7005859e+01
   6.5406250e+01   4.4966797e+01   6.7183594e+01
   6.5139648e+01   4.5055664e+01   6.6916992e+01
   6.4961914e+01   4.5233398e+01   6.6916992e+01
   6.5228516e+01   4.5144531e+01   6.7539062e+01
   6.5050781e+01   4.4966797e+01   6.7539062e+01
   6.4873047e+01   4.5144531e+01   6.7539062e+01
   6.4695312e+01   4.4611328e+01   6.7894531e+01
   6.4695312e+01   4.4433594e+01   6.7716797e+01
   6.5406250e+01   4.4433594e+01   6.8072266e+01
   6.5406250e+01   4.4611328e+01   6.7894531e+01
   6.5406250e+01   4.4433594e+01   6.7716797e+01
   6.5406250e+01   4.4255859e+01   6.7894531e+01
   6.5050781e+01   4.4789062e+01   6.7716797e+01
   6.5228516e+01   4.4789062e+01   6.7894531e+01
   6.5050781e+01   4.4789062e+01   6.8072266e+01
   6.4873047e+01   4.4789062e+01   6.7894531e+01
   6.5050781e+01   4.4611328e+01   6.8250000e+01
   6.5228516e+01   4.4433594e+01   6.8250000e+01
   6.5050781e+01   4.4255859e+01   6.8250000e+01
   6.4695312e+01   4.5144531e+01   6.7716797e+01
   6.4695312e+01   4.4966797e+01   6.7894531e+01
   6.5406250e+01   4.5144531e+01   6.7716797e+01
   6.5406250e+01   4.4966797e+01   6.7894531e+01
   6.5050781e+01   4.4966797e+01   6.8250000e+01
   6.5761719e+01   4.4078125e+01   6.5939453e+01
   6.5583984e+01   4.4078125e+01   6.5761719e+01
   6.5761719e+01   4.3900391e+01   6.6117188e+01
   6.5939453e+01   4.3722656e+01   6.6117188e+01
   6.5761719e+01   4.3544922e+01   6.6117188e+01
   6.5583984e+01   4.3722656e+01   6.6117188e+01
   6.6117188e+01   4.3722656e+01   6.6650391e+01
   6.6117188e+01   4.3900391e+01   6.6472656e+01
   6.6117188e+01   4.3722656e+01   6.6294922e+01
   6.6117188e+01   4.3544922e+01   6.6472656e+01
   6.5761719e+01   4.4078125e+01   6.6294922e+01
   6.5939453e+01   4.4078125e+01   6.6472656e+01
   6.5761719e+01   4.4078125e+01   6.6650391e+01
   6.5583984e+01   4.4078125e+01   6.6472656e+01
   6.5761719e+01   4.3900391e+01   6.6828125e+01
   6.5939453e+01   4.3722656e+01   6.6828125e+01
   6.5761719e+01   4.3544922e+01   6.6828125e+01
   6.5583984e+01   4.3722656e+01   6.6828125e+01
   6.6294922e+01   4.3722656e+01   6.6828125e+01
   6.5495117e+01   4.4522461e+01   6.5672852e+01
   6.5495117e+01   4.4344727e+01   6.5850586e+01
   6.5761719e+01   4.4789062e+01   6.5939453e+01
   6.5583984e+01   4.4789062e+01   6.5761719e+01
   6.5761719e+01   4.4611328e+01   6.6117188e+01
   6.5939453e+01   4.4433594e+01   6.6117188e+01
   6.5761719e+01   4.4255859e+01   6.6117188e+01
   6.5583984e+01   4.4433594e+01   6.6117188e+01
   6.5495117e+01   4.5233398e+01   6.5850586e+01
   6.5495117e+01   4.5055664e+01   6.5672852e+01
   6.5761719e+01   4.5500000e+01   6.5939453e+01
   6.5583984e+01   4.5500000e+01   6.5761719e+01
   6.5761719e+01   4.5322266e+01   6.6117188e+01
   6.5761719e+01   4.4966797e+01   6.6117188e+01
   6.5583984e+01   4.5144531e+01   6.6117188e+01
   6.5495117e+01   4.4522461e+01   6.6561523e+01
   6.5495117e+01   4.4344727e+01   6.6383789e+01
   6.6117188e+01   4.4433594e+01   6.6650391e+01
   6.6117188e+01   4.4611328e+01   6.6472656e+01
   6.6117188e+01   4.4255859e+01   6.6472656e+01
   6.5761719e+01   4.4789062e+01   6.6294922e+01
   6.5939453e+01   4.4789062e+01   6.6472656e+01
   6.5761719e+01   4.4789062e+01   6.6650391e+01
   6.5583984e+01   4.4789062e+01   6.6472656e+01
   6.5761719e+01   4.4611328e+01   6.6828125e+01
   6.5939453e+01   4.4433594e+01   6.6828125e+01
   6.5761719e+01   4.4255859e+01   6.6828125e+01
   6.5583984e+01   4.4433594e+01   6.6828125e+01
   6.6294922e+01   4.4433594e+01   6.6828125e+01
   6.5495117e+01   4.5233398e+01   6.6383789e+01
   6.5495117e+01   4.5055664e+01   6.6561523e+01
   6.6117188e+01   4.5144531e+01   6.6650391e+01
   6.6117188e+01   4.4966797e+01   6.6472656e+01
   6.5761719e+01   4.5500000e+01   6.6294922e+01
   6.5939453e+01   4.5500000e+01   6.6472656e+01
   6.5583984e+01   4.5500000e+01   6.6472656e+01
   6.5761719e+01   4.5322266e+01   6.6828125e+01
   6.5939453e+01   4.5144531e+01   6.6828125e+01
   6.5761719e+01   4.4966797e+01   6.6828125e+01
   6.5583984e+01   4.5144531e+01   6.6828125e+01
   6.6294922e+01   4.5144531e+01   6.6828125e+01
   6.5761719e+01   4.3367188e+01   6.7005859e+01
   6.5939453e+01   4.3367188e+01   6.7183594e+01
   6.5761719e+01   4.3367188e+01   6.7361328e+01
   6.5583984e+01   4.3367188e+01   6.7183594e+01
   6.5761719e+01   4.3189453e+01   6.7539062e+01
   6.6472656e+01   4.3367188e+01   6.7005859e+01
   6.6650391e+01   4.3367188e+01   6.7183594e+01
   6.6472656e+01   4.3367188e+01   6.7361328e+01
   6.6294922e+01   4.3367188e+01   6.7183594e+01
   6.6472656e+01   4.3189453e+01   6.7539062e+01
   6.6117188e+01   4.3722656e+01   6.7361328e+01
   6.6117188e+01   4.3900391e+01   6.7183594e+01
   6.6117188e+01   4.3722656e+01   6.7005859e+01
   6.6117188e+01   4.3544922e+01   6.7183594e+01
   6.5761719e+01   4.4078125e+01   6.7005859e+01
   6.5939453e+01   4.4078125e+01   6.7183594e+01
   6.5761719e+01   4.4078125e+01   6.7361328e+01
   6.5583984e+01   4.4078125e+01   6.7183594e+01
   6.5761719e+01   4.3900391e+01   6.7539062e+01
   6.5939453e+01   4.3722656e+01   6.7539062e+01
   6.5761719e+01   4.3544922e+01   6.7539062e+01
   6.5583984e+01   4.3722656e+01   6.7539062e+01
   6.6472656e+01   4.4078125e+01   6.7005859e+01
   6.6472656e+01   4.4078125e+01   6.7361328e+01
   6.6294922e+01   4.4078125e+01   6.7183594e+01
   6.6472656e+01   4.3900391e+01   6.7539062e+01
   6.6650391e+01   4.3722656e+01   6.7539062e+01
   6.6472656e+01   4.3544922e+01   6.7539062e+01
   6.6294922e+01   4.3722656e+01   6.7539062e+01
   6.6117188e+01   4.3189453e+01   6.7894531e+01
   6.5761719e+01   4.3367188e+01   6.7716797e+01
   6.5939453e+01   4.3367188e+01   6.7894531e+01
   6.5761719e+01   4.3367188e+01   6.8072266e+01
   6.5583984e+01   4.3367188e+01   6.7894531e+01
   6.5761719e+01   4.3189453e+01   6.8250000e+01
   6.5939453e+01   4.3011719e+01   6.8250000e+01
   6.6828125e+01   4.3011719e+01   6.8072266e+01
   6.6828125e+01   4.3189453e+01   6.7894531e+01
   6.6472656e+01   4.3367188e+01   6.7716797e+01
   6.6650391e+01   4.3367188e+01   6.7894531e+01
   6.6472656e+01   4.3367188e+01   6.8072266e+01
   6.6294922e+01   4.3367188e+01   6.7894531e+01
   6.6472656e+01   4.3189453e+01   6.8250000e+01
   6.6650391e+01   4.3011719e+01   6.8250000e+01
   6.6294922e+01   4.3011719e+01   6.8250000e+01
   6.6117188e+01   4.3722656e+01   6.8072266e+01
   6.6117188e+01   4.3900391e+01   6.7894531e+01
   6.6117188e+01   4.3722656e+01   6.7716797e+01
   6.6117188e+01   4.3544922e+01   6.7894531e+01
   6.5761719e+01   4.4078125e+01   6.7716797e+01
   6.5939453e+01   4.4078125e+01   6.7894531e+01
   6.5761719e+01   4.4078125e+01   6.8072266e+01
   6.5583984e+01   4.4078125e+01   6.7894531e+01
   6.5761719e+01   4.3900391e+01   6.8250000e+01
   6.5939453e+01   4.3722656e+01   6.8250000e+01
   6.5761719e+01   4.3544922e+01   6.8250000e+01
   6.5583984e+01   4.3722656e+01   6.8250000e+01
   6.6828125e+01   4.3722656e+01   6.8072266e+01
   6.6828125e+01   4.3900391e+01   6.7894531e+01
   6.6828125e+01   4.3722656e+01   6.7716797e+01
   6.6828125e+01   4.3544922e+01   6.7894531e+01
   6.6472656e+01   4.4078125e+01   6.7716797e+01
   6.6650391e+01   4.4078125e+01   6.7894531e+01
   6.6472656e+01   4.4078125e+01   6.8072266e+01
   6.6294922e+01   4.4078125e+01   6.7894531e+01
   6.6472656e+01   4.3900391e+01   6.8250000e+01
   6.6650391e+01   4.3722656e+01   6.8250000e+01
   6.6472656e+01   4.3544922e+01   6.8250000e+01
   6.6294922e+01   4.3722656e+01   6.8250000e+01
   6.7183594e+01   4.3367188e+01   6.8072266e+01
   6.7005859e+01   4.3367188e+01   6.7894531e+01
   6.7183594e+01   4.3189453e+01   6.8250000e+01
   6.7005859e+01   4.3011719e+01   6.8250000e+01
   6.7005859e+01   4.4078125e+01   6.7894531e+01
   6.7183594e+01   4.3900391e+01   6.8250000e+01
   6.7183594e+01   4.3544922e+01   6.8250000e+01
   6.7005859e+01   4.3722656e+01   6.8250000e+01
   6.6117188e+01   4.4433594e+01   6.7361328e+01
   6.6117188e+01   4.4611328e+01   6.7183594e+01
   6.6117188e+01   4.4433594e+01   6.7005859e+01
   6.6117188e+01   4.4255859e+01   6.7183594e+01
   6.5761719e+01   4.4789062e+01   6.7005859e+01
   6.5939453e+01   4.4789062e+01   6.7183594e+01
   6.5761719e+01   4.4789062e+01   6.7361328e+01
   6.5583984e+01   4.4789062e+01   6.7183594e+01
   6.5761719e+01   4.4611328e+01   6.7539062e+01
   6.5939453e+01   4.4433594e+01   6.7539062e+01
   6.5761719e+01   4.4255859e+01   6.7539062e+01
   6.5583984e+01   4.4433594e+01   6.7539062e+01
   6.6472656e+01   4.4789062e+01   6.7361328e+01
   6.6294922e+01   4.4789062e+01   6.7183594e+01
   6.6472656e+01   4.4611328e+01   6.7539062e+01
   6.6650391e+01   4.4433594e+01   6.7539062e+01
   6.6472656e+01   4.4255859e+01   6.7539062e+01
   6.6294922e+01   4.4433594e+01   6.7539062e+01
   6.6117188e+01   4.5144531e+01   6.7361328e+01
   6.6117188e+01   4.5144531e+01   6.7005859e+01
   6.6117188e+01   4.4966797e+01   6.7183594e+01
   6.5939453e+01   4.5144531e+01   6.7539062e+01
   6.5761719e+01   4.4966797e+01   6.7539062e+01
   6.5583984e+01   4.5144531e+01   6.7539062e+01
   6.6650391e+01   4.5144531e+01   6.7539062e+01
   6.6472656e+01   4.4966797e+01   6.7539062e+01
   6.6294922e+01   4.5144531e+01   6.7539062e+01
   6.6117188e+01   4.4433594e+01   6.8072266e+01
   6.6117188e+01   4.4611328e+01   6.7894531e+01
   6.6117188e+01   4.4433594e+01   6.7716797e+01
   6.6117188e+01   4.4255859e+01   6.7894531e+01
   6.5761719e+01   4.4789062e+01   6.7716797e+01
   6.5939453e+01   4.4789062e+01   6.7894531e+01
   6.5761719e+01   4.4789062e+01   6.8072266e+01
   6.5583984e+01   4.4789062e+01   6.7894531e+01
   6.5761719e+01   4.4611328e+01   6.8250000e+01
   6.5939453e+01   4.4433594e+01   6.8250000e+01
   6.5761719e+01   4.4255859e+01   6.8250000e+01
   6.5583984e+01   4.4433594e+01   6.8250000e+01
   6.6828125e+01   4.4433594e+01   6.8072266e+01
   6.6828125e+01   4.4611328e+01   6.7894531e+01
   6.6828125e+01   4.4433594e+01   6.7716797e+01
   6.6828125e+01   4.4255859e+01   6.7894531e+01
   6.6472656e+01   4.4789062e+01   6.7716797e+01
   6.6650391e+01   4.4789062e+01   6.7894531e+01
   6.6472656e+01   4.4789062e+01   6.8072266e+01
   6.6294922e+01   4.4789062e+01   6.7894531e+01
   6.6472656e+01   4.4611328e+01   6.8250000e+01
   6.6650391e+01   4.4433594e+01   6.8250000e+01
   6.6472656e+01   4.4255859e+01   6.8250000e+01
   6.6294922e+01   4.4433594e+01   6.8250000e+01
   6.6117188e+01   4.5144531e+01   6.7716797e+01
   6.6117188e+01   4.4966797e+01   6.7894531e+01
   6.5761719e+01   4.4966797e+01   6.8250000e+01
   6.6828125e+01   4.4966797e+01   6.7894531e+01
   6.6472656e+01   4.4966797e+01   6.8250000e+01
   6.7183594e+01   4.4611328e+01   6.8250000e+01
   6.7183594e+01   4.4255859e+01   6.8250000e+01
   6.7005859e+01   4.4433594e+01   6.8250000e+01
   6.6472656e+01   4.2656250e+01   6.9494141e+01
   6.6992707e+01   4.2659893e+01   6.9304279e+01
   6.5406250e+01   4.3011719e+01   6.8783203e+01
   6.5406250e+01   4.3189453e+01   6.8605469e+01
   6.5406250e+01   4.3011719e+01   6.8427734e+01
   6.5228516e+01   4.3367188e+01   6.8605469e+01
   6.5406250e+01   4.3722656e+01   6.8783203e+01
   6.5406250e+01   4.3900391e+01   6.8605469e+01
   6.5406250e+01   4.3722656e+01   6.8427734e+01
   6.5406250e+01   4.3544922e+01   6.8605469e+01
   6.5050781e+01   4.4078125e+01   6.8427734e+01
   6.5228516e+01   4.4078125e+01   6.8605469e+01
   6.5406250e+01   4.4433594e+01   6.8783203e+01
   6.5406250e+01   4.4611328e+01   6.8605469e+01
   6.5406250e+01   4.4433594e+01   6.8427734e+01
   6.5406250e+01   4.4255859e+01   6.8605469e+01
   6.5050781e+01   4.4789062e+01   6.8427734e+01
   6.5228516e+01   4.4789062e+01   6.8605469e+01
   6.5406250e+01   4.4966797e+01   6.8605469e+01
   6.6117188e+01   4.3011719e+01   6.8783203e+01
   6.6117188e+01   4.3189453e+01   6.8605469e+01
   6.6117188e+01   4.3011719e+01   6.8427734e+01
   6.5761719e+01   4.3367188e+01   6.8427734e+01
   6.5939453e+01   4.3367188e+01   6.8605469e+01
   6.5761719e+01   4.3367188e+01   6.8783203e+01
   6.5583984e+01   4.3367188e+01   6.8605469e+01
   6.5761719e+01   4.3189453e+01   6.8960938e+01
   6.5939453e+01   4.3011719e+01   6.8960938e+01
   6.5761719e+01   4.2833984e+01   6.8960938e+01
   6.5583984e+01   4.3011719e+01   6.8960938e+01
   6.6828125e+01   4.3011719e+01   6.8783203e+01
   6.6828125e+01   4.3189453e+01   6.8605469e+01
   6.6828125e+01   4.3011719e+01   6.8427734e+01
   6.6472656e+01   4.3367188e+01   6.8427734e+01
   6.6650391e+01   4.3367188e+01   6.8605469e+01
   6.6472656e+01   4.3367188e+01   6.8783203e+01
   6.6294922e+01   4.3367188e+01   6.8605469e+01
   6.6472656e+01   4.3189453e+01   6.8960938e+01
   6.6650391e+01   4.3011719e+01   6.8960938e+01
   6.6472656e+01   4.2833984e+01   6.8960938e+01
   6.6294922e+01   4.3011719e+01   6.8960938e+01
   6.6117188e+01   4.3722656e+01   6.8783203e+01
   6.6117188e+01   4.3900391e+01   6.8605469e+01
   6.6117188e+01   4.3722656e+01   6.8427734e+01
   6.6117188e+01   4.3544922e+01   6.8605469e+01
   6.5761719e+01   4.4078125e+01   6.8427734e+01
   6.5939453e+01   4.4078125e+01   6.8605469e+01
   6.5761719e+01   4.4078125e+01   6.8783203e+01
   6.5583984e+01   4.4078125e+01   6.8605469e+01
   6.5761719e+01   4.3900391e+01   6.8960938e+01
   6.5939453e+01   4.3722656e+01   6.8960938e+01
   6.5761719e+01   4.3544922e+01   6.8960938e+01
   6.5583984e+01   4.3722656e+01   6.8960938e+01
   6.6828125e+01   4.3722656e+01   6.8783203e+01
   6.6828125e+01   4.3900391e+01   6.8605469e+01
   6.6828125e+01   4.3722656e+01   6.8427734e+01
   6.6828125e+01   4.3544922e+01   6.8605469e+01
   6.6472656e+01   4.4078125e+01   6.8427734e+01
   6.6650391e+01   4.4078125e+01   6.8605469e+01
   6.6472656e+01   4.4078125e+01   6.8783203e+01
   6.6294922e+01   4.4078125e+01   6.8605469e+01
   6.6472656e+01   4.3900391e+01   6.8960938e+01
   6.6650391e+01   4.3722656e+01   6.8960938e+01
   6.6472656e+01   4.3544922e+01   6.8960938e+01
   6.6294922e+01   4.3722656e+01   6.8960938e+01
   6.6117188e+01   4.3011719e+01   6.9494141e+01
   6.6117188e+01   4.3189453e+01   6.9316406e+01
   6.6117188e+01   4.3011719e+01   6.9138672e+01
   6.6117188e+01   4.2833984e+01   6.9316406e+01
   6.5761719e+01   4.3367188e+01   6.9138672e+01
   6.5939453e+01   4.3367188e+01   6.9316406e+01
   6.5761719e+01   4.3367188e+01   6.9494141e+01
   6.5939453e+01   4.3011719e+01   6.9671875e+01
   6.6828125e+01   4.3011719e+01   6.9494141e+01
   6.6828125e+01   4.3189453e+01   6.9316406e+01
   6.6828125e+01   4.3011719e+01   6.9138672e+01
   6.6828125e+01   4.2833984e+01   6.9316406e+01
   6.6472656e+01   4.3367188e+01   6.9138672e+01
   6.6650391e+01   4.3367188e+01   6.9316406e+01
   6.6472656e+01   4.3367188e+01   6.9494141e+01
   6.6294922e+01   4.3367188e+01   6.9316406e+01
   6.6472656e+01   4.3189453e+01   6.9671875e+01
   6.6650391e+01   4.3011719e+01   6.9671875e+01
   6.6472656e+01   4.2833984e+01   6.9671875e+01
   6.6294922e+01   4.3011719e+01   6.9671875e+01
   6.6117188e+01   4.3722656e+01   6.9494141e+01
   6.6117188e+01   4.3900391e+01   6.9316406e+01
   6.6117188e+01   4.3722656e+01   6.9138672e+01
   6.6117188e+01   4.3544922e+01   6.9316406e+01
   6.5761719e+01   4.4078125e+01   6.9138672e+01
   6.5939453e+01   4.4078125e+01   6.9316406e+01
   6.5761719e+01   4.4078125e+01   6.9494141e+01
   6.5583984e+01   4.4078125e+01   6.9316406e+01
   6.5939453e+01   4.3722656e+01   6.9671875e+01
   6.6828125e+01   4.3722656e+01   6.9494141e+01
   6.6828125e+01   4.3900391e+01   6.9316406e+01
   6.6828125e+01   4.3722656e+01   6.9138672e+01
   6.6828125e+01   4.3544922e+01   6.9316406e+01
   6.6472656e+01   4.4078125e+01   6.9138672e+01
   6.6650391e+01   4.4078125e+01   6.9316406e+01
   6.6472656e+01   4.4078125e+01   6.9494141e+01
   6.6294922e+01   4.4078125e+01   6.9316406e+01
   6.6472656e+01   4.3900391e+01   6.9671875e+01
   6.6650391e+01   4.3722656e+01   6.9671875e+01
   6.6472656e+01   4.3544922e+01   6.9671875e+01
   6.6294922e+01   4.3722656e+01   6.9671875e+01
   6.7551387e+01   4.3012553e+01   6.8795863e+01
   6.7539062e+01   4.3189453e+01   6.8605469e+01
   6.7551387e+01   4.2834818e+01   6.8618129e+01
   6.7183594e+01   4.3367188e+01   6.8427734e+01
   6.7361328e+01   4.3367188e+01   6.8605469e+01
   6.7183594e+01   4.3367188e+01   6.8783203e+01
   6.7005859e+01   4.3367188e+01   6.8605469e+01
   6.7183594e+01   4.3189453e+01   6.8960938e+01
   6.7373652e+01   4.3012553e+01   6.8973598e+01
   6.7195918e+01   4.2834818e+01   6.8973598e+01
   6.7005859e+01   4.3011719e+01   6.8960938e+01
   6.7751199e+01   4.3243917e+01   6.8955643e+01
   6.7539062e+01   4.3722656e+01   6.8783203e+01
   6.7183594e+01   4.4078125e+01   6.8427734e+01
   6.7361328e+01   4.4078125e+01   6.8605469e+01
   6.7183594e+01   4.4078125e+01   6.8783203e+01
   6.7005859e+01   4.4078125e+01   6.8605469e+01
   6.7183594e+01   4.3900391e+01   6.8960938e+01
   6.7361328e+01   4.3722656e+01   6.8960938e+01
   6.7183594e+01   4.3544922e+01   6.8960938e+01
   6.7005859e+01   4.3722656e+01   6.8960938e+01
   6.7683283e+01   4.3689143e+01   6.9055988e+01
   6.7288537e+01   4.3022972e+01   6.9372180e+01
   6.7546092e+01   4.3067017e+01   6.9096867e+01
   6.7356215e+01   4.2901425e+01   6.9262459e+01
   6.7183594e+01   4.3367188e+01   6.9138672e+01
   6.7360439e+01   4.3435104e+01   6.9315518e+01
   6.7005859e+01   4.3367188e+01   6.9316406e+01
   6.7040262e+01   4.3243917e+01   6.9666580e+01
   6.7239367e+01   4.3022972e+01   6.9421350e+01
   6.7116986e+01   4.2900591e+01   6.9476703e+01
   6.6951395e+01   4.3066183e+01   6.9666580e+01
   6.7717686e+01   4.3388138e+01   6.9050693e+01
   6.7455490e+01   4.3757060e+01   6.9459738e+01
   6.7701760e+01   4.3799229e+01   6.9172805e+01
   6.7634113e+01   4.3511408e+01   6.9194025e+01
   6.7183594e+01   4.4078125e+01   6.9138672e+01
   6.7361328e+01   4.4078125e+01   6.9316406e+01
   6.7183594e+01   4.4078125e+01   6.9494141e+01
   6.7005859e+01   4.4078125e+01   6.9316406e+01
   6.7162373e+01   4.3921610e+01   6.9650654e+01
   6.7326926e+01   4.3757060e+01   6.9588303e+01
   6.7238059e+01   4.3579325e+01   6.9588303e+01
   6.6972346e+01   4.3689143e+01   6.9638361e+01
   6.6117188e+01   4.4433594e+01   6.8783203e+01
   6.6117188e+01   4.4611328e+01   6.8605469e+01
   6.6117188e+01   4.4433594e+01   6.8427734e+01
   6.6117188e+01   4.4255859e+01   6.8605469e+01
   6.5761719e+01   4.4789062e+01   6.8427734e+01
   6.5939453e+01   4.4789062e+01   6.8605469e+01
   6.5761719e+01   4.4789062e+01   6.8783203e+01
   6.5583984e+01   4.4789062e+01   6.8605469e+01
   6.5761719e+01   4.4611328e+01   6.8960938e+01
   6.5939453e+01   4.4433594e+01   6.8960938e+01
   6.5761719e+01   4.4255859e+01   6.8960938e+01
   6.5583984e+01   4.4433594e+01   6.8960938e+01
   6.6828125e+01   4.4433594e+01   6.8783203e+01
   6.6828125e+01   4.4611328e+01   6.8605469e+01
   6.6828125e+01   4.4433594e+01   6.8427734e+01
   6.6828125e+01   4.4255859e+01   6.8605469e+01
   6.6472656e+01   4.4789062e+01   6.8427734e+01
   6.6650391e+01   4.4789062e+01   6.8605469e+01
   6.6472656e+01   4.4789062e+01   6.8783203e+01
   6.6294922e+01   4.4789062e+01   6.8605469e+01
   6.6472656e+01   4.4611328e+01   6.8960938e+01
   6.6650391e+01   4.4433594e+01   6.8960938e+01
   6.6472656e+01   4.4255859e+01   6.8960938e+01
   6.6294922e+01   4.4433594e+01   6.8960938e+01
   6.6117188e+01   4.4433594e+01   6.9494141e+01
   6.6117188e+01   4.4611328e+01   6.9316406e+01
   6.6117188e+01   4.4433594e+01   6.9138672e+01
   6.6117188e+01   4.4255859e+01   6.9316406e+01
   6.5761719e+01   4.4789062e+01   6.9138672e+01
   6.5583984e+01   4.4789062e+01   6.9316406e+01
   6.5761719e+01   4.4611328e+01   6.9671875e+01
   6.5939453e+01   4.4433594e+01   6.9671875e+01
   6.6828125e+01   4.4433594e+01   6.9494141e+01
   6.6828125e+01   4.4611328e+01   6.9316406e+01
   6.6828125e+01   4.4433594e+01   6.9138672e+01
   6.6828125e+01   4.4255859e+01   6.9316406e+01
   6.6472656e+01   4.4789062e+01   6.9138672e+01
   6.6472656e+01   4.4611328e+01   6.9671875e+01
   6.6650391e+01   4.4433594e+01   6.9671875e+01
   6.6472656e+01   4.4255859e+01   6.9671875e+01
   6.6294922e+01   4.4433594e+01   6.9671875e+01
   6.7539062e+01   4.4433594e+01   6.8783203e+01
   6.7183594e+01   4.4789062e+01   6.8427734e+01
   6.7361328e+01   4.4789062e+01   6.8605469e+01
   6.7183594e+01   4.4789062e+01   6.8783203e+01
   6.7005859e+01   4.4789062e+01   6.8605469e+01
   6.7183594e+01   4.4611328e+01   6.8960938e+01
   6.7361328e+01   4.4433594e+01   6.8960938e+01
   6.7183594e+01   4.4255859e+01   6.8960938e+01
   6.7005859e+01   4.4433594e+01   6.8960938e+01
   6.7539062e+01   4.4433594e+01   6.9494141e+01
   6.7539062e+01   4.4611328e+01   6.9316406e+01
   6.7539062e+01   4.4433594e+01   6.9138672e+01
   6.7539062e+01   4.4255859e+01   6.9316406e+01
   6.7361328e+01   4.4433594e+01   6.9671875e+01
   6.7183594e+01   4.4255859e+01   6.9671875e+01
   6.7005859e+01   4.4433594e+01   6.9671875e+01
   6.7940338e+01   4.4436959e+01   6.9407482e+01
   6.7826885e+01   4.4323507e+01   6.9471764e+01
   6.7650564e+01   4.4499826e+01   6.9650912e+01
   6.6117188e+01   4.3189453e+01   7.0027344e+01
   6.6117188e+01   4.3011719e+01   6.9849609e+01
   6.6117188e+01   4.2833984e+01   7.0027344e+01
   6.6822830e+01   4.3066183e+01   6.9795145e+01
   6.6472656e+01   4.3367188e+01   6.9849609e+01
   6.6294922e+01   4.3367188e+01   7.0027344e+01
   6.6117188e+01   4.3900391e+01   7.0027344e+01
   6.6117188e+01   4.3722656e+01   6.9849609e+01
   6.6117188e+01   4.3544922e+01   7.0027344e+01
   6.6862258e+01   4.3799229e+01   6.9883742e+01
   6.6794611e+01   4.3511408e+01   6.9904963e+01
   6.6472656e+01   4.4078125e+01   6.9849609e+01
   6.6650391e+01   4.4078125e+01   7.0027344e+01
   6.6472656e+01   4.4078125e+01   7.0205078e+01
   6.6294922e+01   4.4078125e+01   7.0027344e+01
   6.7006748e+01   4.3388138e+01   6.9761631e+01
   6.6117188e+01   4.4433594e+01   7.0205078e+01
   6.6117188e+01   4.4433594e+01   6.9849609e+01
   6.6117188e+01   4.4255859e+01   7.0027344e+01
   6.6828125e+01   4.4433594e+01   7.0205078e+01
   6.6828125e+01   4.4433594e+01   6.9849609e+01
   6.6828125e+01   4.4255859e+01   7.0027344e+01
   6.6485439e+01   4.4256693e+01   7.0395137e+01
   6.6307705e+01   4.4434428e+01   7.0395137e+01
   6.7472830e+01   4.4499826e+01   6.9783377e+01
   6.1051758e+01   4.7366211e+01   5.9452148e+01
   6.0874023e+01   4.7366211e+01   5.9629883e+01
   6.0696289e+01   4.7188477e+01   5.9629883e+01
   6.7293893e+01   4.2727333e+01   6.9250332e+01
   6.7103834e+01   4.2726499e+01   6.9415406e+01
   6.6451436e+01   4.2677470e+01   6.9828389e+01
   6.6540303e+01   4.2677470e+01   6.9917256e+01
   6.6273701e+01   4.2677470e+01   7.0006123e+01
   6.7674656e+01   4.3067017e+01   6.8968303e+01
   6.7750930e+01   4.3799229e+01   6.9123635e+01
   6.7533768e+01   4.3243917e+01   6.9173074e+01
   6.7444012e+01   4.3222967e+01   6.9261053e+01
   6.7355145e+01   4.3134100e+01   6.9261053e+01
   6.7422822e+01   4.3012553e+01   6.9151332e+01
   6.7305975e+01   4.3311834e+01   6.9261053e+01
   6.7449307e+01   4.3346237e+01   6.9315518e+01
   6.7128240e+01   4.3400701e+01   6.9527654e+01
   6.7128240e+01   4.3311834e+01   6.9438787e+01
   6.7271572e+01   4.3435104e+01   6.9493252e+01
   6.7128240e+01   4.3222967e+01   6.9576824e+01
   6.7128240e+01   4.3134100e+01   6.9487957e+01
   6.7005859e+01   4.3011719e+01   6.9543311e+01
   6.7628818e+01   4.3388138e+01   6.9139561e+01
   6.7646406e+01   4.3921610e+01   6.9295186e+01
   6.7489893e+01   4.3900391e+01   6.9316406e+01
   6.7634113e+01   4.3689143e+01   6.9105158e+01
   6.7489893e+01   4.3722656e+01   6.9138672e+01
   6.7544357e+01   4.3490458e+01   6.9282004e+01
   6.7455490e+01   4.3579325e+01   6.9282004e+01
   6.7251240e+01   4.3832743e+01   6.9690352e+01
   6.7150080e+01   4.3600275e+01   6.9678059e+01
   6.7061213e+01   4.3511408e+01   6.9638361e+01
   6.7128859e+01   4.3710362e+01   6.9745705e+01
   6.7039992e+01   4.3799229e+01   6.9706008e+01
   6.7826885e+01   4.4234640e+01   6.9426494e+01
   6.7695576e+01   4.4099345e+01   6.9295186e+01
   6.7784443e+01   4.4099345e+01   6.9384053e+01
   6.7830250e+01   4.4547046e+01   6.9475129e+01
   6.7716797e+01   4.4433594e+01   6.9539410e+01
   6.6822830e+01   4.3243917e+01   6.9884012e+01
   6.6644207e+01   4.3134100e+01   6.9971990e+01
   6.6699561e+01   4.3011719e+01   6.9849609e+01
   6.6683904e+01   4.3400701e+01   6.9971990e+01
   6.6595037e+01   4.3311834e+01   6.9971990e+01
   6.6417303e+01   4.3311834e+01   7.0149725e+01
   6.6806904e+01   4.3921610e+01   7.0006123e+01
   6.6794611e+01   4.3689143e+01   6.9816096e+01
   6.6901955e+01   4.3710362e+01   6.9972609e+01
   6.6294922e+01   4.3722656e+01   7.0333643e+01
   6.6917881e+01   4.3388138e+01   6.9850498e+01
   6.7162373e+01   4.4099345e+01   6.9828389e+01
   6.6984639e+01   4.4099345e+01   7.0006123e+01
   6.7429232e+01   4.4410959e+01   6.9872244e+01
