   7.0738281e+01   4.6033203e+01   6.6117188e+01
   7.0916016e+01   4.5855469e+01   6.6117188e+01
   7.0382812e+01   4.5855469e+01   6.6650391e+01
   7.0382812e+01   4.6033203e+01   6.6472656e+01
   7.0382812e+01   4.5855469e+01   6.6294922e+01
   7.0027344e+01   4.6210938e+01   6.6650391e+01
   7.0027344e+01   4.6033203e+01   6.6828125e+01
   7.0205078e+01   4.5855469e+01   6.6828125e+01
   6.9849609e+01   4.5855469e+01   6.6828125e+01
   7.1161396e+01   4.5876689e+01   6.6718037e+01
   7.1093750e+01   4.6033203e+01   6.6472656e+01
   7.1093750e+01   4.5855469e+01   6.6294922e+01
   7.0738281e+01   4.6210938e+01   6.6294922e+01
   7.0916016e+01   4.6210938e+01   6.6472656e+01
   7.0738281e+01   4.6210938e+01   6.6650391e+01
   7.0560547e+01   4.6210938e+01   6.6472656e+01
   7.0738281e+01   4.6033203e+01   6.6828125e+01
   7.0983662e+01   4.5876689e+01   6.6895771e+01
   7.0845625e+01   4.5698955e+01   6.6806904e+01
   7.0560547e+01   4.5855469e+01   6.6828125e+01
   7.0382812e+01   4.6566406e+01   6.6650391e+01
   7.0382812e+01   4.6388672e+01   6.6472656e+01
   7.0027344e+01   4.6744141e+01   6.6828125e+01
   7.0205078e+01   4.6566406e+01   6.6828125e+01
   7.0027344e+01   4.6388672e+01   6.6828125e+01
   7.1093750e+01   4.6566406e+01   6.6650391e+01
   7.1093750e+01   4.6744141e+01   6.6472656e+01
   7.1093750e+01   4.6566406e+01   6.6294922e+01
   7.1093750e+01   4.6388672e+01   6.6472656e+01
   7.0916016e+01   4.6921875e+01   6.6472656e+01
   7.0738281e+01   4.6921875e+01   6.6650391e+01
   7.0738281e+01   4.6744141e+01   6.6828125e+01
   7.0916016e+01   4.6566406e+01   6.6828125e+01
   7.0738281e+01   4.6388672e+01   6.6828125e+01
   7.0560547e+01   4.6566406e+01   6.6828125e+01
   7.1093750e+01   4.7277344e+01   6.6650391e+01
   7.1093750e+01   4.7455078e+01   6.6472656e+01
   7.1093750e+01   4.7099609e+01   6.6472656e+01
   7.0738281e+01   4.7455078e+01   6.6828125e+01
   7.0916016e+01   4.7277344e+01   6.6828125e+01
   7.0738281e+01   4.7099609e+01   6.6828125e+01
   7.0560547e+01   4.7277344e+01   6.6828125e+01
   7.0395596e+01   4.6034037e+01   6.7195918e+01
   7.0382812e+01   4.5855469e+01   6.7005859e+01
   7.0382812e+01   4.5677734e+01   6.7134424e+01
   7.0027344e+01   4.6210938e+01   6.7005859e+01
   7.0217861e+01   4.6211771e+01   6.7195918e+01
   7.0040127e+01   4.6211771e+01   6.7373652e+01
   7.0738281e+01   4.6210938e+01   6.7005859e+01
   7.0573330e+01   4.6211771e+01   6.7195918e+01
   7.0395596e+01   4.6567240e+01   6.7373652e+01
   7.0382812e+01   4.6744141e+01   6.7183594e+01
   7.0382812e+01   4.6566406e+01   6.7005859e+01
   7.0395596e+01   4.6389506e+01   6.7195918e+01
   7.0027344e+01   4.6921875e+01   6.7005859e+01
   7.0205078e+01   4.6921875e+01   6.7183594e+01
   7.0027344e+01   4.6921875e+01   6.7361328e+01
   6.9849609e+01   4.6921875e+01   6.7183594e+01
   7.0027344e+01   4.6744141e+01   6.7539062e+01
   7.0217861e+01   4.6567240e+01   6.7551387e+01
   7.0843600e+01   4.6577285e+01   6.7239742e+01
   7.0909832e+01   4.6688787e+01   6.7217107e+01
   7.1063871e+01   4.6645456e+01   6.6975980e+01
   7.1029469e+01   4.6324390e+01   6.6986848e+01
   7.0738281e+01   4.6921875e+01   6.7005859e+01
   7.0560547e+01   4.6921875e+01   6.7183594e+01
   7.0794430e+01   4.6577285e+01   6.7288912e+01
   7.0573330e+01   4.6567240e+01   6.7422822e+01
   7.0382812e+01   4.7277344e+01   6.7361328e+01
   7.0382812e+01   4.7455078e+01   6.7183594e+01
   7.0382812e+01   4.7277344e+01   6.7005859e+01
   7.0382812e+01   4.7099609e+01   6.7183594e+01
   7.0205078e+01   4.7632812e+01   6.7183594e+01
   7.0027344e+01   4.7632812e+01   6.7361328e+01
   7.0027344e+01   4.7455078e+01   6.7539062e+01
   7.0205078e+01   4.7277344e+01   6.7539062e+01
   7.0027344e+01   4.7099609e+01   6.7539062e+01
   7.0985592e+01   4.7287161e+01   6.7302340e+01
   7.1019994e+01   4.7430493e+01   6.7291473e+01
   7.1126469e+01   4.7355332e+01   6.7038578e+01
   7.1060236e+01   4.7066096e+01   6.7061213e+01
   7.0738281e+01   4.7632812e+01   6.7005859e+01
   7.0560547e+01   4.7632812e+01   6.7183594e+01
   7.0670377e+01   4.7477713e+01   6.7644992e+01
   7.0857027e+01   4.7287161e+01   6.7430904e+01
   7.0525912e+01   4.7242709e+01   6.7632992e+01
   7.0525117e+01   4.7354211e+01   6.7748395e+01
   7.0348178e+01   4.7064975e+01   6.7750127e+01
   7.1449219e+01   4.6210938e+01   6.5939453e+01
   7.1449219e+01   4.6033203e+01   6.6117188e+01
   7.1271484e+01   4.5855469e+01   6.6117188e+01
   7.1449219e+01   4.6744141e+01   6.6117188e+01
   7.1449219e+01   4.6388672e+01   6.6117188e+01
   7.1271484e+01   4.6566406e+01   6.6117188e+01
   7.1449219e+01   4.6210938e+01   6.6294922e+01
   7.1560721e+01   4.6277170e+01   6.6406424e+01
   7.1271484e+01   4.6210938e+01   6.6472656e+01
   7.1249107e+01   4.6100851e+01   6.6760479e+01
   7.1203838e+01   4.6011983e+01   6.6760479e+01
   7.1554537e+01   4.6577285e+01   6.6528805e+01
   7.1449219e+01   4.6921875e+01   6.6294922e+01
   7.1626064e+01   4.6989791e+01   6.6471768e+01
   7.1271484e+01   4.6921875e+01   6.6472656e+01
   7.1305887e+01   4.6798605e+01   6.6773660e+01
   7.1505367e+01   4.6577285e+01   6.6577975e+01
   7.1407572e+01   4.6479489e+01   6.6657914e+01
   7.1207203e+01   4.6502124e+01   6.6763844e+01
   7.1449219e+01   4.7099609e+01   6.6117188e+01
   7.1696529e+01   4.7287161e+01   6.6591402e+01
   7.1449219e+01   4.7632812e+01   6.6294922e+01
   7.1271484e+01   4.7632812e+01   6.6472656e+01
   7.1381314e+01   4.7477713e+01   6.6805490e+01
   7.1567965e+01   4.7287161e+01   6.6719967e+01
   7.1470170e+01   4.7189365e+01   6.6799906e+01
   7.1237971e+01   4.7243830e+01   6.6794611e+01
   7.1184826e+01   4.6214303e+01   6.6873932e+01
   7.1139557e+01   4.6214303e+01   6.6919201e+01
   7.1272373e+01   4.6942826e+01   6.6917881e+01
   7.1183506e+01   4.6942826e+01   6.7006748e+01
   7.1358680e+01   4.7632812e+01   6.6960590e+01
   7.1072529e+01   4.5876689e+01   6.6629170e+01
   7.1072529e+01   4.5698955e+01   6.6580000e+01
   7.0894795e+01   4.5876689e+01   6.6806904e+01
   7.0689111e+01   4.5677734e+01   6.6828125e+01
   7.0916016e+01   4.6210938e+01   6.7051129e+01
   7.0999588e+01   4.6709738e+01   6.7129129e+01
   7.1039285e+01   4.6798605e+01   6.7040262e+01
   7.1029469e+01   4.6502124e+01   6.6941578e+01
   7.1024174e+01   4.6556589e+01   6.7064848e+01
   7.0989771e+01   4.6413257e+01   6.7075715e+01
   7.0898953e+01   4.6454904e+01   6.7162631e+01
   7.0915127e+01   4.6989791e+01   6.7271572e+01
   7.0860662e+01   4.6866521e+01   6.7217107e+01
   7.0916016e+01   4.6921875e+01   6.7094727e+01
   7.0735023e+01   4.6900924e+01   6.7449307e+01
   7.0737393e+01   4.6989791e+01   6.7360439e+01
   7.0682928e+01   4.6866521e+01   6.7305975e+01
   7.0682928e+01   4.6688787e+01   6.7355145e+01
   7.1110812e+01   4.7388846e+01   6.7204557e+01
   7.1071115e+01   4.7477713e+01   6.7115689e+01
   7.1060236e+01   4.7243830e+01   6.6972346e+01
   7.1166166e+01   4.7266465e+01   6.7127445e+01
   7.1099934e+01   4.7154963e+01   6.7150080e+01
   7.1010178e+01   4.7134012e+01   6.7238059e+01
   7.0713695e+01   4.7430493e+01   6.7465307e+01
   7.0703879e+01   4.7134012e+01   6.7455490e+01
   7.0560547e+01   4.7277344e+01   6.7489893e+01
   7.0592145e+01   4.7354211e+01   6.7699225e+01
   7.0282271e+01   4.7421564e+01   6.7861018e+01
   7.0370018e+01   4.7331576e+01   6.7771029e+01
   7.0348178e+01   4.7242709e+01   6.7682162e+01
   7.1649588e+01   4.6188303e+01   6.6362826e+01
   7.1316754e+01   4.6210938e+01   6.6650391e+01
   7.1428256e+01   4.6277170e+01   6.6584158e+01
   7.1620770e+01   4.6688787e+01   6.6417303e+01
   7.1609891e+01   4.6454904e+01   6.6406424e+01
   7.1571600e+01   4.6866521e+01   6.6417303e+01
   7.1360352e+01   4.6921875e+01   6.6650391e+01
   7.1537197e+01   4.6989791e+01   6.6649502e+01
   7.1482732e+01   4.6866521e+01   6.6595037e+01
   7.1428268e+01   4.6743252e+01   6.6718307e+01
   7.1428268e+01   4.6654385e+01   6.6678609e+01
   7.1363975e+01   4.6390622e+01   6.6697611e+01
   7.1252473e+01   4.6324390e+01   6.6763844e+01
   7.1330473e+01   4.6556589e+01   6.6758549e+01
   7.1241605e+01   4.6645456e+01   6.6798246e+01
   7.1602367e+01   4.7608228e+01   6.6448070e+01
   7.1403949e+01   4.7632812e+01   6.6650391e+01
   7.1557098e+01   4.7608228e+01   6.6625805e+01
   7.1534463e+01   4.7453128e+01   6.6780904e+01
   7.1490865e+01   4.7364261e+01   6.6820602e+01
   7.1470170e+01   4.7100498e+01   6.6760209e+01
   7.1326838e+01   4.7066096e+01   6.6794611e+01
   7.1393070e+01   4.7266465e+01   6.6900541e+01
   7.1304203e+01   4.7355332e+01   6.6860844e+01
