   6.8072266e+01   4.4966797e+01   6.2207031e+01
   6.8072266e+01   4.5144531e+01   6.2029297e+01
   6.7894531e+01   4.5500000e+01   6.2029297e+01
   6.7539062e+01   4.5500000e+01   6.2207031e+01
   6.7183594e+01   4.5500000e+01   6.1851562e+01
   6.7539062e+01   4.5144531e+01   6.2562500e+01
   6.7894531e+01   4.4966797e+01   6.2562500e+01
   6.6828125e+01   4.4966797e+01   6.3628906e+01
   6.6828125e+01   4.5144531e+01   6.3273438e+01
   6.6117188e+01   4.5500000e+01   6.2917969e+01
   6.6472656e+01   4.5500000e+01   6.3273438e+01
   6.6117188e+01   4.5500000e+01   6.3628906e+01
   6.5761719e+01   4.5500000e+01   6.3273438e+01
   6.8072266e+01   4.4611328e+01   6.3628906e+01
   6.8072266e+01   4.4966797e+01   6.3628906e+01
   6.8072266e+01   4.5144531e+01   6.3451172e+01
   6.8072266e+01   4.5144531e+01   6.3095703e+01
   6.8072266e+01   4.4966797e+01   6.2917969e+01
   6.8072266e+01   4.4611328e+01   6.2917969e+01
   6.8072266e+01   4.4433594e+01   6.3451172e+01
   6.7539062e+01   4.5500000e+01   6.2917969e+01
   6.7894531e+01   4.5500000e+01   6.3095703e+01
   6.7894531e+01   4.5500000e+01   6.3451172e+01
   6.7716797e+01   4.5500000e+01   6.3628906e+01
   6.7361328e+01   4.5500000e+01   6.3628906e+01
   6.7183594e+01   4.5500000e+01   6.3273438e+01
   6.7361328e+01   4.5144531e+01   6.3806641e+01
   6.7716797e+01   4.5144531e+01   6.3806641e+01
   6.7894531e+01   4.4966797e+01   6.3806641e+01
   6.6828125e+01   4.6210938e+01   6.2207031e+01
   6.6117188e+01   4.6921875e+01   6.2207031e+01
   6.6117188e+01   4.6566406e+01   6.2562500e+01
   6.6472656e+01   4.6210938e+01   6.2562500e+01
   6.6117188e+01   4.5855469e+01   6.2562500e+01
   6.5761719e+01   4.6210938e+01   6.2562500e+01
   6.8250000e+01   4.6033203e+01   6.2207031e+01
   6.7539062e+01   4.6566406e+01   6.2562500e+01
   6.7894531e+01   4.6388672e+01   6.2562500e+01
   6.7894531e+01   4.6033203e+01   6.2562500e+01
   6.7539062e+01   4.5855469e+01   6.2562500e+01
   6.7183594e+01   4.6210938e+01   6.2562500e+01
   6.6117188e+01   4.7277344e+01   6.2562500e+01
   6.5406250e+01   4.5855469e+01   6.3273438e+01
   6.6828125e+01   4.6033203e+01   6.3628906e+01
   6.6828125e+01   4.6388672e+01   6.3628906e+01
   6.6828125e+01   4.6566406e+01   6.3273438e+01
   6.6828125e+01   4.6210938e+01   6.2917969e+01
   6.6828125e+01   4.5855469e+01   6.3273438e+01
   6.6117188e+01   4.6921875e+01   6.2917969e+01
   6.6472656e+01   4.6921875e+01   6.3273438e+01
   6.6117188e+01   4.6921875e+01   6.3628906e+01
   6.6117188e+01   4.6566406e+01   6.3984375e+01
   6.6472656e+01   4.6388672e+01   6.3984375e+01
   6.6472656e+01   4.6033203e+01   6.3984375e+01
   6.8072266e+01   4.6033203e+01   6.3628906e+01
   6.8072266e+01   4.6388672e+01   6.3628906e+01
   6.8072266e+01   4.6566406e+01   6.3451172e+01
   6.8072266e+01   4.6566406e+01   6.3095703e+01
   6.8072266e+01   4.6388672e+01   6.2917969e+01
   6.8072266e+01   4.6033203e+01   6.2917969e+01
   6.8072266e+01   4.5855469e+01   6.3095703e+01
   6.8072266e+01   4.5855469e+01   6.3451172e+01
   6.7539062e+01   4.6921875e+01   6.2917969e+01
   6.7183594e+01   4.6921875e+01   6.3273438e+01
   6.7361328e+01   4.6566406e+01   6.3806641e+01
   6.7716797e+01   4.6566406e+01   6.3806641e+01
   6.7894531e+01   4.6388672e+01   6.3806641e+01
   6.7894531e+01   4.6033203e+01   6.3806641e+01
   6.7716797e+01   4.5855469e+01   6.3806641e+01
   6.7361328e+01   4.5855469e+01   6.3806641e+01
   6.7183594e+01   4.6033203e+01   6.3806641e+01
   6.7183594e+01   4.6388672e+01   6.3806641e+01
   6.8783203e+01   4.5677734e+01   6.2207031e+01
   6.9316406e+01   4.6033203e+01   6.2384766e+01
   6.9138672e+01   4.5855469e+01   6.2384766e+01
   6.8783203e+01   4.5855469e+01   6.2384766e+01
   6.8605469e+01   4.6033203e+01   6.2384766e+01
   6.8605469e+01   4.6388672e+01   6.2384766e+01
   7.0205078e+01   4.4078125e+01   6.2207031e+01
   7.0027344e+01   4.4078125e+01   6.2384766e+01
   7.1093750e+01   4.3722656e+01   6.2384766e+01
   7.1093750e+01   4.3900391e+01   6.2207031e+01
   7.0738281e+01   4.4078125e+01   6.2029297e+01
   7.0916016e+01   4.4078125e+01   6.2207031e+01
   7.0738281e+01   4.4078125e+01   6.2384766e+01
   7.0560547e+01   4.4078125e+01   6.2207031e+01
   7.0738281e+01   4.3900391e+01   6.2562500e+01
   7.0916016e+01   4.3722656e+01   6.2562500e+01
   6.8960938e+01   4.4433594e+01   6.2384766e+01
   6.8960938e+01   4.4611328e+01   6.2207031e+01
   6.8605469e+01   4.4789062e+01   6.2029297e+01
   6.8783203e+01   4.4789062e+01   6.2207031e+01
   6.8605469e+01   4.4789062e+01   6.2384766e+01
   6.8427734e+01   4.4789062e+01   6.2207031e+01
   6.8605469e+01   4.4611328e+01   6.2562500e+01
   6.8783203e+01   4.4433594e+01   6.2562500e+01
   6.9671875e+01   4.4433594e+01   6.2384766e+01
   6.9671875e+01   4.4611328e+01   6.2207031e+01
   6.9671875e+01   4.4433594e+01   6.2029297e+01
   6.9671875e+01   4.4255859e+01   6.2207031e+01
   6.9316406e+01   4.4789062e+01   6.2029297e+01
   6.9494141e+01   4.4789062e+01   6.2207031e+01
   6.9316406e+01   4.4789062e+01   6.2384766e+01
   6.9138672e+01   4.4789062e+01   6.2207031e+01
   6.9316406e+01   4.4611328e+01   6.2562500e+01
   6.9494141e+01   4.4433594e+01   6.2562500e+01
   6.9316406e+01   4.4255859e+01   6.2562500e+01
   6.9138672e+01   4.4433594e+01   6.2562500e+01
   6.8338867e+01   4.5233398e+01   6.2118164e+01
   6.8338867e+01   4.5055664e+01   6.2295898e+01
   6.8960938e+01   4.5144531e+01   6.2384766e+01
   6.8960938e+01   4.5322266e+01   6.2207031e+01
   6.8960938e+01   4.5144531e+01   6.2029297e+01
   6.8960938e+01   4.4966797e+01   6.2207031e+01
   6.8694336e+01   4.5411133e+01   6.2295898e+01
   6.8516602e+01   4.5411133e+01   6.2118164e+01
   6.8605469e+01   4.5322266e+01   6.2562500e+01
   6.8783203e+01   4.5144531e+01   6.2562500e+01
   6.8605469e+01   4.4966797e+01   6.2562500e+01
   6.8427734e+01   4.5144531e+01   6.2562500e+01
   6.9671875e+01   4.5144531e+01   6.2384766e+01
   6.9671875e+01   4.5322266e+01   6.2207031e+01
   6.9671875e+01   4.4966797e+01   6.2207031e+01
   6.9227539e+01   4.5411133e+01   6.2295898e+01
   6.9316406e+01   4.5322266e+01   6.2562500e+01
   6.9494141e+01   4.5144531e+01   6.2562500e+01
   6.9316406e+01   4.4966797e+01   6.2562500e+01
   6.9138672e+01   4.5144531e+01   6.2562500e+01
   7.0382812e+01   4.4433594e+01   6.2384766e+01
   7.0382812e+01   4.4611328e+01   6.2207031e+01
   7.0382812e+01   4.4433594e+01   6.2029297e+01
   7.0382812e+01   4.4255859e+01   6.2207031e+01
   7.0205078e+01   4.4789062e+01   6.2207031e+01
   7.0027344e+01   4.4789062e+01   6.2384766e+01
   6.9849609e+01   4.4789062e+01   6.2207031e+01
   7.0027344e+01   4.4611328e+01   6.2562500e+01
   7.0205078e+01   4.4433594e+01   6.2562500e+01
   7.0027344e+01   4.4255859e+01   6.2562500e+01
   6.9849609e+01   4.4433594e+01   6.2562500e+01
   7.1093750e+01   4.4433594e+01   6.2384766e+01
   7.1093750e+01   4.4611328e+01   6.2207031e+01
   7.1093750e+01   4.4255859e+01   6.2207031e+01
   7.0738281e+01   4.4789062e+01   6.2384766e+01
   7.0560547e+01   4.4789062e+01   6.2207031e+01
   7.0738281e+01   4.4611328e+01   6.2562500e+01
   7.0916016e+01   4.4433594e+01   6.2562500e+01
   7.0738281e+01   4.4255859e+01   6.2562500e+01
   7.0560547e+01   4.4433594e+01   6.2562500e+01
   7.0382812e+01   4.5144531e+01   6.2384766e+01
   7.0382812e+01   4.4966797e+01   6.2207031e+01
   7.0027344e+01   4.5500000e+01   6.2384766e+01
   7.0027344e+01   4.5322266e+01   6.2562500e+01
   7.0205078e+01   4.5144531e+01   6.2562500e+01
   7.0027344e+01   4.4966797e+01   6.2562500e+01
   6.9849609e+01   4.5144531e+01   6.2562500e+01
   7.1093750e+01   4.5144531e+01   6.2384766e+01
   7.0738281e+01   4.5322266e+01   6.2562500e+01
   7.0916016e+01   4.5144531e+01   6.2562500e+01
   7.0738281e+01   4.4966797e+01   6.2562500e+01
   7.0560547e+01   4.5144531e+01   6.2562500e+01
   7.2515625e+01   4.3189453e+01   6.2207031e+01
   7.2160156e+01   4.3367188e+01   6.2029297e+01
   7.2337891e+01   4.3367188e+01   6.2207031e+01
   7.2160156e+01   4.3367188e+01   6.2384766e+01
   7.1982422e+01   4.3367188e+01   6.2207031e+01
   7.2160156e+01   4.3189453e+01   6.2562500e+01
   7.1804688e+01   4.3722656e+01   6.2384766e+01
   7.1804688e+01   4.3900391e+01   6.2207031e+01
   7.1804688e+01   4.3722656e+01   6.2029297e+01
   7.1804688e+01   4.3544922e+01   6.2207031e+01
   7.1626953e+01   4.4078125e+01   6.2207031e+01
   7.1449219e+01   4.4078125e+01   6.2384766e+01
   7.1271484e+01   4.4078125e+01   6.2207031e+01
   7.1449219e+01   4.3900391e+01   6.2562500e+01
   7.1626953e+01   4.3722656e+01   6.2562500e+01
   7.1449219e+01   4.3544922e+01   6.2562500e+01
   7.1271484e+01   4.3722656e+01   6.2562500e+01
   7.2515625e+01   4.3722656e+01   6.2384766e+01
   7.2515625e+01   4.3900391e+01   6.2207031e+01
   7.2515625e+01   4.3544922e+01   6.2207031e+01
   7.2160156e+01   4.4078125e+01   6.2384766e+01
   7.1982422e+01   4.4078125e+01   6.2207031e+01
   7.2160156e+01   4.3900391e+01   6.2562500e+01
   7.2337891e+01   4.3722656e+01   6.2562500e+01
   7.2160156e+01   4.3544922e+01   6.2562500e+01
   7.1982422e+01   4.3722656e+01   6.2562500e+01
   7.2693359e+01   4.3367188e+01   6.2207031e+01
   7.2871094e+01   4.4078125e+01   6.2384766e+01
   7.2871094e+01   4.3900391e+01   6.2562500e+01
   7.2693359e+01   4.3722656e+01   6.2562500e+01
   7.1804688e+01   4.4433594e+01   6.2384766e+01
   7.1804688e+01   4.4255859e+01   6.2207031e+01
   7.1449219e+01   4.4789062e+01   6.2384766e+01
   7.1449219e+01   4.4611328e+01   6.2562500e+01
   7.1626953e+01   4.4433594e+01   6.2562500e+01
   7.1449219e+01   4.4255859e+01   6.2562500e+01
   7.1271484e+01   4.4433594e+01   6.2562500e+01
   7.2515625e+01   4.4433594e+01   6.2384766e+01
   7.2160156e+01   4.4611328e+01   6.2562500e+01
   7.2337891e+01   4.4433594e+01   6.2562500e+01
   7.2160156e+01   4.4255859e+01   6.2562500e+01
   7.1982422e+01   4.4433594e+01   6.2562500e+01
   7.1449219e+01   4.5322266e+01   6.2562500e+01
   7.1626953e+01   4.5144531e+01   6.2562500e+01
   7.1449219e+01   4.4966797e+01   6.2562500e+01
   7.1271484e+01   4.5144531e+01   6.2562500e+01
   7.2160156e+01   4.4966797e+01   6.2562500e+01
   7.1982422e+01   4.5144531e+01   6.2562500e+01
   7.2871094e+01   4.4611328e+01   6.2562500e+01
   7.3048828e+01   4.4433594e+01   6.2562500e+01
   7.2871094e+01   4.4255859e+01   6.2562500e+01
   7.2693359e+01   4.4433594e+01   6.2562500e+01
   6.9494141e+01   4.4078125e+01   6.2917969e+01
   6.9316406e+01   4.4078125e+01   6.3095703e+01
   6.8783203e+01   4.4078125e+01   6.3628906e+01
   6.9671875e+01   4.3900391e+01   6.3628906e+01
   6.9671875e+01   4.3722656e+01   6.3451172e+01
   6.9316406e+01   4.4078125e+01   6.3451172e+01
   6.9494141e+01   4.4078125e+01   6.3628906e+01
   6.9316406e+01   4.4078125e+01   6.3806641e+01
   6.9138672e+01   4.4078125e+01   6.3628906e+01
   7.0382812e+01   4.3722656e+01   6.3095703e+01
   7.0382812e+01   4.3900391e+01   6.2917969e+01
   7.0027344e+01   4.4078125e+01   6.2740234e+01
   7.0205078e+01   4.4078125e+01   6.2917969e+01
   7.0027344e+01   4.4078125e+01   6.3095703e+01
   6.9849609e+01   4.4078125e+01   6.2917969e+01
   7.0027344e+01   4.3900391e+01   6.3273438e+01
   7.0205078e+01   4.3722656e+01   6.3273438e+01
   6.9849609e+01   4.3722656e+01   6.3273438e+01
   7.1093750e+01   4.3722656e+01   6.3095703e+01
   7.1093750e+01   4.3900391e+01   6.2917969e+01
   7.1093750e+01   4.3722656e+01   6.2740234e+01
   7.1093750e+01   4.3544922e+01   6.2917969e+01
   7.0738281e+01   4.4078125e+01   6.2740234e+01
   7.0916016e+01   4.4078125e+01   6.2917969e+01
   7.0738281e+01   4.4078125e+01   6.3095703e+01
   7.0560547e+01   4.4078125e+01   6.2917969e+01
   7.0738281e+01   4.3900391e+01   6.3273438e+01
   7.0916016e+01   4.3722656e+01   6.3273438e+01
   7.0738281e+01   4.3544922e+01   6.3273438e+01
   7.0560547e+01   4.3722656e+01   6.3273438e+01
   7.1093750e+01   4.3189453e+01   6.3628906e+01
   7.0738281e+01   4.3367188e+01   6.3451172e+01
   7.0916016e+01   4.3367188e+01   6.3628906e+01
   7.0738281e+01   4.3367188e+01   6.3806641e+01
   7.0560547e+01   4.3367188e+01   6.3628906e+01
   7.0382812e+01   4.3722656e+01   6.3806641e+01
   7.0382812e+01   4.3900391e+01   6.3628906e+01
   7.0382812e+01   4.3722656e+01   6.3451172e+01
   7.0382812e+01   4.3544922e+01   6.3628906e+01
   7.0027344e+01   4.4078125e+01   6.3451172e+01
   7.0205078e+01   4.4078125e+01   6.3628906e+01
   7.0027344e+01   4.4078125e+01   6.3806641e+01
   6.9849609e+01   4.4078125e+01   6.3628906e+01
   7.1093750e+01   4.3722656e+01   6.3806641e+01
   7.1093750e+01   4.3900391e+01   6.3628906e+01
   7.1093750e+01   4.3722656e+01   6.3451172e+01
   7.1093750e+01   4.3544922e+01   6.3628906e+01
   7.0738281e+01   4.4078125e+01   6.3451172e+01
   7.0916016e+01   4.4078125e+01   6.3628906e+01
   7.0738281e+01   4.4078125e+01   6.3806641e+01
   7.0560547e+01   4.4078125e+01   6.3628906e+01
   7.0738281e+01   4.3900391e+01   6.3984375e+01
   7.0916016e+01   4.3722656e+01   6.3984375e+01
   6.8338867e+01   4.4522461e+01   6.2829102e+01
   6.8960938e+01   4.4433594e+01   6.3095703e+01
   6.8960938e+01   4.4611328e+01   6.2917969e+01
   6.8960938e+01   4.4433594e+01   6.2740234e+01
   6.8960938e+01   4.4255859e+01   6.2917969e+01
   6.8605469e+01   4.4789062e+01   6.2740234e+01
   6.8783203e+01   4.4789062e+01   6.2917969e+01
   6.8605469e+01   4.4789062e+01   6.3095703e+01
   6.8427734e+01   4.4789062e+01   6.2917969e+01
   6.8605469e+01   4.4611328e+01   6.3273438e+01
   6.8783203e+01   4.4433594e+01   6.3273438e+01
   6.8605469e+01   4.4255859e+01   6.3273438e+01
   6.8427734e+01   4.4433594e+01   6.3273438e+01
   6.9671875e+01   4.4433594e+01   6.3095703e+01
   6.9671875e+01   4.4611328e+01   6.2917969e+01
   6.9671875e+01   4.4433594e+01   6.2740234e+01
   6.9671875e+01   4.4255859e+01   6.2917969e+01
   6.9316406e+01   4.4789062e+01   6.2740234e+01
   6.9494141e+01   4.4789062e+01   6.2917969e+01
   6.9316406e+01   4.4789062e+01   6.3095703e+01
   6.9138672e+01   4.4789062e+01   6.2917969e+01
   6.9316406e+01   4.4611328e+01   6.3273438e+01
   6.9494141e+01   4.4433594e+01   6.3273438e+01
   6.9316406e+01   4.4255859e+01   6.3273438e+01
   6.9138672e+01   4.4433594e+01   6.3273438e+01
   6.8338867e+01   4.5233398e+01   6.3006836e+01
   6.8338867e+01   4.5055664e+01   6.2829102e+01
   6.8960938e+01   4.5144531e+01   6.3095703e+01
   6.8960938e+01   4.5322266e+01   6.2917969e+01
   6.8960938e+01   4.5144531e+01   6.2740234e+01
   6.8960938e+01   4.4966797e+01   6.2917969e+01
   6.8605469e+01   4.5500000e+01   6.2740234e+01
   6.8783203e+01   4.5500000e+01   6.2917969e+01
   6.8605469e+01   4.5500000e+01   6.3095703e+01
   6.8427734e+01   4.5500000e+01   6.2917969e+01
   6.8605469e+01   4.5322266e+01   6.3273438e+01
   6.8783203e+01   4.5144531e+01   6.3273438e+01
   6.8605469e+01   4.4966797e+01   6.3273438e+01
   6.8427734e+01   4.5144531e+01   6.3273438e+01
   6.9671875e+01   4.5144531e+01   6.3095703e+01
   6.9671875e+01   4.5322266e+01   6.2917969e+01
   6.9671875e+01   4.5144531e+01   6.2740234e+01
   6.9671875e+01   4.4966797e+01   6.2917969e+01
   6.9316406e+01   4.5500000e+01   6.2740234e+01
   6.9494141e+01   4.5500000e+01   6.2917969e+01
   6.9316406e+01   4.5500000e+01   6.3095703e+01
   6.9138672e+01   4.5500000e+01   6.2917969e+01
   6.9316406e+01   4.5322266e+01   6.3273438e+01
   6.9494141e+01   4.5144531e+01   6.3273438e+01
   6.9316406e+01   4.4966797e+01   6.3273438e+01
   6.9138672e+01   4.5144531e+01   6.3273438e+01
   6.8338867e+01   4.4522461e+01   6.3717773e+01
   6.8338867e+01   4.4344727e+01   6.3540039e+01
   6.8960938e+01   4.4433594e+01   6.3806641e+01
   6.8960938e+01   4.4611328e+01   6.3628906e+01
   6.8960938e+01   4.4433594e+01   6.3451172e+01
   6.8960938e+01   4.4255859e+01   6.3628906e+01
   6.8605469e+01   4.4789062e+01   6.3451172e+01
   6.8783203e+01   4.4789062e+01   6.3628906e+01
   6.8605469e+01   4.4789062e+01   6.3806641e+01
   6.8427734e+01   4.4789062e+01   6.3628906e+01
   6.9671875e+01   4.4433594e+01   6.3806641e+01
   6.9671875e+01   4.4611328e+01   6.3628906e+01
   6.9671875e+01   4.4433594e+01   6.3451172e+01
   6.9671875e+01   4.4255859e+01   6.3628906e+01
   6.9316406e+01   4.4789062e+01   6.3451172e+01
   6.9494141e+01   4.4789062e+01   6.3628906e+01
   6.9316406e+01   4.4789062e+01   6.3806641e+01
   6.9138672e+01   4.4789062e+01   6.3628906e+01
   6.9316406e+01   4.4611328e+01   6.3984375e+01
   6.9494141e+01   4.4433594e+01   6.3984375e+01
   6.8338867e+01   4.5233398e+01   6.3540039e+01
   6.8338867e+01   4.5055664e+01   6.3717773e+01
   6.8960938e+01   4.5144531e+01   6.3806641e+01
   6.8960938e+01   4.5322266e+01   6.3628906e+01
   6.8960938e+01   4.5144531e+01   6.3451172e+01
   6.8960938e+01   4.4966797e+01   6.3628906e+01
   6.8605469e+01   4.5500000e+01   6.3451172e+01
   6.8783203e+01   4.5500000e+01   6.3628906e+01
   6.8605469e+01   4.5500000e+01   6.3806641e+01
   6.8427734e+01   4.5500000e+01   6.3628906e+01
   6.8605469e+01   4.5322266e+01   6.3984375e+01
   6.8783203e+01   4.5144531e+01   6.3984375e+01
   6.8605469e+01   4.4966797e+01   6.3984375e+01
   6.8427734e+01   4.5144531e+01   6.3984375e+01
   6.9671875e+01   4.5144531e+01   6.3806641e+01
   6.9671875e+01   4.5322266e+01   6.3628906e+01
   6.9671875e+01   4.5144531e+01   6.3451172e+01
   6.9671875e+01   4.4966797e+01   6.3628906e+01
   6.9316406e+01   4.5500000e+01   6.3451172e+01
   6.9494141e+01   4.5500000e+01   6.3628906e+01
   6.9316406e+01   4.5500000e+01   6.3806641e+01
   6.9138672e+01   4.5500000e+01   6.3628906e+01
   6.9316406e+01   4.5322266e+01   6.3984375e+01
   6.9494141e+01   4.5144531e+01   6.3984375e+01
   6.9316406e+01   4.4966797e+01   6.3984375e+01
   6.9138672e+01   4.5144531e+01   6.3984375e+01
   7.0382812e+01   4.4433594e+01   6.3095703e+01
   7.0382812e+01   4.4611328e+01   6.2917969e+01
   7.0382812e+01   4.4433594e+01   6.2740234e+01
   7.0382812e+01   4.4255859e+01   6.2917969e+01
   7.0027344e+01   4.4789062e+01   6.2740234e+01
   7.0205078e+01   4.4789062e+01   6.2917969e+01
   7.0027344e+01   4.4789062e+01   6.3095703e+01
   6.9849609e+01   4.4789062e+01   6.2917969e+01
   7.0027344e+01   4.4611328e+01   6.3273438e+01
   7.0205078e+01   4.4433594e+01   6.3273438e+01
   7.0027344e+01   4.4255859e+01   6.3273438e+01
   6.9849609e+01   4.4433594e+01   6.3273438e+01
   7.1093750e+01   4.4433594e+01   6.3095703e+01
   7.1093750e+01   4.4611328e+01   6.2917969e+01
   7.1093750e+01   4.4433594e+01   6.2740234e+01
   7.1093750e+01   4.4255859e+01   6.2917969e+01
   7.0738281e+01   4.4789062e+01   6.2740234e+01
   7.0916016e+01   4.4789062e+01   6.2917969e+01
   7.0738281e+01   4.4789062e+01   6.3095703e+01
   7.0560547e+01   4.4789062e+01   6.2917969e+01
   7.0738281e+01   4.4611328e+01   6.3273438e+01
   7.0916016e+01   4.4433594e+01   6.3273438e+01
   7.0738281e+01   4.4255859e+01   6.3273438e+01
   7.0560547e+01   4.4433594e+01   6.3273438e+01
   7.0382812e+01   4.5144531e+01   6.3095703e+01
   7.0382812e+01   4.5322266e+01   6.2917969e+01
   7.0382812e+01   4.5144531e+01   6.2740234e+01
   7.0382812e+01   4.4966797e+01   6.2917969e+01
   7.0027344e+01   4.5500000e+01   6.2740234e+01
   7.0205078e+01   4.5500000e+01   6.2917969e+01
   7.0027344e+01   4.5500000e+01   6.3095703e+01
   6.9849609e+01   4.5500000e+01   6.2917969e+01
   7.0027344e+01   4.5322266e+01   6.3273438e+01
   7.0205078e+01   4.5144531e+01   6.3273438e+01
   7.0027344e+01   4.4966797e+01   6.3273438e+01
   6.9849609e+01   4.5144531e+01   6.3273438e+01
   7.1093750e+01   4.5144531e+01   6.3095703e+01
   7.1093750e+01   4.5322266e+01   6.2917969e+01
   7.1093750e+01   4.5144531e+01   6.2740234e+01
   7.1093750e+01   4.4966797e+01   6.2917969e+01
   7.0738281e+01   4.5500000e+01   6.2740234e+01
   7.0916016e+01   4.5500000e+01   6.2917969e+01
   7.0738281e+01   4.5500000e+01   6.3095703e+01
   7.0560547e+01   4.5500000e+01   6.2917969e+01
   7.0738281e+01   4.5322266e+01   6.3273438e+01
   7.0916016e+01   4.5144531e+01   6.3273438e+01
   7.0738281e+01   4.4966797e+01   6.3273438e+01
   7.0560547e+01   4.5144531e+01   6.3273438e+01
   7.0382812e+01   4.4433594e+01   6.3806641e+01
   7.0382812e+01   4.4611328e+01   6.3628906e+01
   7.0382812e+01   4.4433594e+01   6.3451172e+01
   7.0382812e+01   4.4255859e+01   6.3628906e+01
   7.0027344e+01   4.4789062e+01   6.3451172e+01
   7.0205078e+01   4.4789062e+01   6.3628906e+01
   7.0027344e+01   4.4789062e+01   6.3806641e+01
   6.9849609e+01   4.4789062e+01   6.3628906e+01
   7.0027344e+01   4.4611328e+01   6.3984375e+01
   7.0205078e+01   4.4433594e+01   6.3984375e+01
   7.0027344e+01   4.4255859e+01   6.3984375e+01
   6.9849609e+01   4.4433594e+01   6.3984375e+01
   7.1093750e+01   4.4433594e+01   6.3806641e+01
   7.1093750e+01   4.4611328e+01   6.3628906e+01
   7.1093750e+01   4.4433594e+01   6.3451172e+01
   7.1093750e+01   4.4255859e+01   6.3628906e+01
   7.0738281e+01   4.4789062e+01   6.3451172e+01
   7.0916016e+01   4.4789062e+01   6.3628906e+01
   7.0738281e+01   4.4789062e+01   6.3806641e+01
   7.0560547e+01   4.4789062e+01   6.3628906e+01
   7.0738281e+01   4.4611328e+01   6.3984375e+01
   7.0916016e+01   4.4433594e+01   6.3984375e+01
   7.0738281e+01   4.4255859e+01   6.3984375e+01
   7.0560547e+01   4.4433594e+01   6.3984375e+01
   7.0382812e+01   4.5144531e+01   6.3806641e+01
   7.0382812e+01   4.5322266e+01   6.3628906e+01
   7.0382812e+01   4.5144531e+01   6.3451172e+01
   7.0382812e+01   4.4966797e+01   6.3628906e+01
   7.0027344e+01   4.5500000e+01   6.3451172e+01
   7.0205078e+01   4.5500000e+01   6.3628906e+01
   7.0027344e+01   4.5500000e+01   6.3806641e+01
   6.9849609e+01   4.5500000e+01   6.3628906e+01
   7.0027344e+01   4.5322266e+01   6.3984375e+01
   7.0205078e+01   4.5144531e+01   6.3984375e+01
   7.0027344e+01   4.4966797e+01   6.3984375e+01
   6.9849609e+01   4.5144531e+01   6.3984375e+01
   7.1093750e+01   4.5144531e+01   6.3806641e+01
   7.1093750e+01   4.5322266e+01   6.3628906e+01
   7.1093750e+01   4.5144531e+01   6.3451172e+01
   7.1093750e+01   4.4966797e+01   6.3628906e+01
   7.0738281e+01   4.5500000e+01   6.3451172e+01
   7.0560547e+01   4.5500000e+01   6.3628906e+01
   7.0738281e+01   4.5322266e+01   6.3984375e+01
   7.0916016e+01   4.5144531e+01   6.3984375e+01
   7.0738281e+01   4.4966797e+01   6.3984375e+01
   7.0560547e+01   4.5144531e+01   6.3984375e+01
   6.8605469e+01   4.5500000e+01   6.4162109e+01
   6.9671875e+01   4.5144531e+01   6.4162109e+01
   6.9316406e+01   4.5500000e+01   6.4162109e+01
   6.9494141e+01   4.5500000e+01   6.4339844e+01
   7.0027344e+01   4.4789062e+01   6.4162109e+01
   7.1093750e+01   4.4433594e+01   6.4162109e+01
   7.0738281e+01   4.4789062e+01   6.4162109e+01
   7.0916016e+01   4.4789062e+01   6.4339844e+01
   7.0382812e+01   4.5322266e+01   6.4339844e+01
   7.0382812e+01   4.5144531e+01   6.4162109e+01
   7.0027344e+01   4.5500000e+01   6.4162109e+01
   6.9849609e+01   4.5500000e+01   6.4339844e+01
   7.1093750e+01   4.5144531e+01   6.4162109e+01
   7.1093750e+01   4.4966797e+01   6.4339844e+01
   7.1804688e+01   4.3189453e+01   6.2917969e+01
   7.1449219e+01   4.3367188e+01   6.2740234e+01
   7.1626953e+01   4.3367188e+01   6.2917969e+01
   7.1449219e+01   4.3367188e+01   6.3095703e+01
   7.1271484e+01   4.3367188e+01   6.2917969e+01
   7.1449219e+01   4.3189453e+01   6.3273438e+01
   7.2547396e+01   4.3118163e+01   6.2999039e+01
   7.2549758e+01   4.3088293e+01   6.2774368e+01
   7.2160156e+01   4.3367188e+01   6.2740234e+01
   7.2350307e+01   4.3363544e+01   6.2931392e+01
   7.2172572e+01   4.3363544e+01   6.3109126e+01
   7.1982422e+01   4.3367188e+01   6.2917969e+01
   7.2172572e+01   4.3185810e+01   6.3286860e+01
   7.2317537e+01   4.3040845e+01   6.3254091e+01
   7.1982422e+01   4.3011719e+01   6.3273438e+01
   7.1804688e+01   4.3722656e+01   6.3095703e+01
   7.1804688e+01   4.3900391e+01   6.2917969e+01
   7.1804688e+01   4.3722656e+01   6.2740234e+01
   7.1804688e+01   4.3544922e+01   6.2917969e+01
   7.1449219e+01   4.4078125e+01   6.2740234e+01
   7.1626953e+01   4.4078125e+01   6.2917969e+01
   7.1449219e+01   4.4078125e+01   6.3095703e+01
   7.1271484e+01   4.4078125e+01   6.2917969e+01
   7.1449219e+01   4.3900391e+01   6.3273438e+01
   7.1626953e+01   4.3722656e+01   6.3273438e+01
   7.1449219e+01   4.3544922e+01   6.3273438e+01
   7.1271484e+01   4.3722656e+01   6.3273438e+01
   7.2528041e+01   4.3719013e+01   6.3109126e+01
   7.2515625e+01   4.3900391e+01   6.2917969e+01
   7.2515625e+01   4.3722656e+01   6.2740234e+01
   7.2528041e+01   4.3541278e+01   6.2931392e+01
   7.2160156e+01   4.4078125e+01   6.2740234e+01
   7.2337891e+01   4.4078125e+01   6.2917969e+01
   7.2160156e+01   4.4078125e+01   6.3095703e+01
   7.1982422e+01   4.4078125e+01   6.2917969e+01
   7.2160156e+01   4.3900391e+01   6.3273438e+01
   7.2350307e+01   4.3719013e+01   6.3286860e+01
   7.2172572e+01   4.3541278e+01   6.3286860e+01
   7.1982422e+01   4.3722656e+01   6.3273438e+01
   7.1793756e+01   4.3015361e+01   6.3793218e+01
   7.1804688e+01   4.3189453e+01   6.3628906e+01
   7.1804688e+01   4.3011719e+01   6.3451172e+01
   7.1793756e+01   4.2837627e+01   6.3615483e+01
   7.1449219e+01   4.3367188e+01   6.3451172e+01
   7.1626953e+01   4.3367188e+01   6.3628906e+01
   7.1449219e+01   4.3367188e+01   6.3806641e+01
   7.1271484e+01   4.3367188e+01   6.3628906e+01
   7.2172572e+01   4.3363544e+01   6.3464595e+01
   7.1982422e+01   4.3367188e+01   6.3628906e+01
   7.1994965e+01   4.3244875e+01   6.3928953e+01
   7.1916068e+01   4.3070783e+01   6.3915530e+01
   7.1804688e+01   4.3722656e+01   6.3806641e+01
   7.1804688e+01   4.3900391e+01   6.3628906e+01
   7.1804688e+01   4.3722656e+01   6.3451172e+01
   7.1804688e+01   4.3544922e+01   6.3628906e+01
   7.1449219e+01   4.4078125e+01   6.3451172e+01
   7.1626953e+01   4.4078125e+01   6.3628906e+01
   7.1449219e+01   4.4078125e+01   6.3806641e+01
   7.1271484e+01   4.4078125e+01   6.3628906e+01
   7.1449219e+01   4.3900391e+01   6.3984375e+01
   7.1626953e+01   4.3722656e+01   6.3984375e+01
   7.1449219e+01   4.3544922e+01   6.3984375e+01
   7.1271484e+01   4.3722656e+01   6.3984375e+01
   7.2373000e+01   4.3776415e+01   6.3752882e+01
   7.2481744e+01   4.3845403e+01   6.3683894e+01
   7.2494160e+01   4.3752893e+01   6.3430715e+01
   7.2385416e+01   4.3595037e+01   6.3588570e+01
   7.2160156e+01   4.4078125e+01   6.3451172e+01
   7.2337891e+01   4.4078125e+01   6.3628906e+01
   7.2160156e+01   4.4078125e+01   6.3806641e+01
   7.1982422e+01   4.4078125e+01   6.3628906e+01
   7.2142643e+01   4.3905856e+01   6.3978910e+01
   7.2266619e+01   4.3781881e+01   6.3925151e+01
   7.2067982e+01   4.3515279e+01   6.4014019e+01
   7.1964908e+01   4.3728122e+01   6.3978910e+01
   7.2871094e+01   4.4078125e+01   6.2740234e+01
   7.2693359e+01   4.4078125e+01   6.2917969e+01
   7.2788922e+01   4.3934271e+01   6.3326055e+01
   7.2705775e+01   4.3719013e+01   6.3195623e+01
   7.1804688e+01   4.4433594e+01   6.3095703e+01
   7.1804688e+01   4.4611328e+01   6.2917969e+01
   7.1804688e+01   4.4433594e+01   6.2740234e+01
   7.1804688e+01   4.4255859e+01   6.2917969e+01
   7.1449219e+01   4.4789062e+01   6.2740234e+01
   7.1626953e+01   4.4789062e+01   6.2917969e+01
   7.1449219e+01   4.4789062e+01   6.3095703e+01
   7.1271484e+01   4.4789062e+01   6.2917969e+01
   7.1449219e+01   4.4611328e+01   6.3273438e+01
   7.1626953e+01   4.4433594e+01   6.3273438e+01
   7.1449219e+01   4.4255859e+01   6.3273438e+01
   7.1271484e+01   4.4433594e+01   6.3273438e+01
   7.2515625e+01   4.4433594e+01   6.3095703e+01
   7.2515625e+01   4.4611328e+01   6.2917969e+01
   7.2515625e+01   4.4433594e+01   6.2740234e+01
   7.2515625e+01   4.4255859e+01   6.2917969e+01
   7.2160156e+01   4.4789062e+01   6.2740234e+01
   7.2337891e+01   4.4789062e+01   6.2917969e+01
   7.2160156e+01   4.4789062e+01   6.3095703e+01
   7.1982422e+01   4.4789062e+01   6.2917969e+01
   7.2160156e+01   4.4611328e+01   6.3273438e+01
   7.2337891e+01   4.4433594e+01   6.3273438e+01
   7.2160156e+01   4.4255859e+01   6.3273438e+01
   7.1982422e+01   4.4433594e+01   6.3273438e+01
   7.1804688e+01   4.5144531e+01   6.3095703e+01
   7.1804688e+01   4.5322266e+01   6.2917969e+01
   7.1804688e+01   4.5144531e+01   6.2740234e+01
   7.1804688e+01   4.4966797e+01   6.2917969e+01
   7.1449219e+01   4.5500000e+01   6.2740234e+01
   7.1271484e+01   4.5500000e+01   6.2917969e+01
   7.1449219e+01   4.5322266e+01   6.3273438e+01
   7.1626953e+01   4.5144531e+01   6.3273438e+01
   7.1449219e+01   4.4966797e+01   6.3273438e+01
   7.1271484e+01   4.5144531e+01   6.3273438e+01
   7.2515625e+01   4.5144531e+01   6.2740234e+01
   7.2515625e+01   4.4966797e+01   6.2917969e+01
   7.2160156e+01   4.4966797e+01   6.3273438e+01
   7.1982422e+01   4.5144531e+01   6.3273438e+01
   7.1804688e+01   4.4433594e+01   6.3806641e+01
   7.1804688e+01   4.4611328e+01   6.3628906e+01
   7.1804688e+01   4.4433594e+01   6.3451172e+01
   7.1804688e+01   4.4255859e+01   6.3628906e+01
   7.1449219e+01   4.4789062e+01   6.3451172e+01
   7.1626953e+01   4.4789062e+01   6.3628906e+01
   7.1449219e+01   4.4789062e+01   6.3806641e+01
   7.1271484e+01   4.4789062e+01   6.3628906e+01
   7.1449219e+01   4.4611328e+01   6.3984375e+01
   7.1626953e+01   4.4433594e+01   6.3984375e+01
   7.1449219e+01   4.4255859e+01   6.3984375e+01
   7.1271484e+01   4.4433594e+01   6.3984375e+01
   7.2527303e+01   4.4429951e+01   6.3820063e+01
   7.2527303e+01   4.4607686e+01   6.3642329e+01
   7.2527303e+01   4.4429951e+01   6.3464595e+01
   7.2527303e+01   4.4252217e+01   6.3642329e+01
   7.2160156e+01   4.4789062e+01   6.3451172e+01
   7.2337891e+01   4.4789062e+01   6.3628906e+01
   7.2160156e+01   4.4789062e+01   6.3806641e+01
   7.1982422e+01   4.4789062e+01   6.3628906e+01
   7.2160156e+01   4.4611328e+01   6.3984375e+01
   7.2337891e+01   4.4433594e+01   6.3984375e+01
   7.2160156e+01   4.4255859e+01   6.3984375e+01
   7.1982422e+01   4.4433594e+01   6.3984375e+01
   7.1804688e+01   4.5144531e+01   6.3451172e+01
   7.1804688e+01   4.4966797e+01   6.3628906e+01
   7.1449219e+01   4.4966797e+01   6.3984375e+01
   7.1271484e+01   4.5144531e+01   6.3984375e+01
   7.3214885e+01   4.4614971e+01   6.2904546e+01
   7.2871094e+01   4.4789062e+01   6.2740234e+01
   7.3048828e+01   4.4789062e+01   6.2917969e+01
   7.2871094e+01   4.4789062e+01   6.3095703e+01
   7.2693359e+01   4.4789062e+01   6.2917969e+01
   7.2882771e+01   4.4607686e+01   6.3286860e+01
   7.3039285e+01   4.4451172e+01   6.3265641e+01
   7.2705037e+01   4.4429951e+01   6.3286860e+01
   7.3170594e+01   4.4586466e+01   6.3396947e+01
   7.2651279e+01   4.4483710e+01   6.3944039e+01
   7.1449219e+01   4.4078125e+01   6.4162109e+01
   7.2142643e+01   4.4083591e+01   6.4156645e+01
   7.1804688e+01   4.4611328e+01   6.4339844e+01
   7.1804688e+01   4.4433594e+01   6.4162109e+01
   7.1449219e+01   4.4789062e+01   6.4162109e+01
   7.1626953e+01   4.4789062e+01   6.4339844e+01
   7.1271484e+01   4.4789062e+01   6.4339844e+01
   7.2332920e+01   4.4494481e+01   6.4456691e+01
   7.2461867e+01   4.4487353e+01   6.4108351e+01
   7.2350434e+01   4.4311281e+01   6.4284422e+01
   6.7183594e+01   4.6210938e+01   6.4162109e+01
   6.7094727e+01   4.5944336e+01   6.4073242e+01
   6.8250000e+01   4.5855469e+01   6.4162109e+01
   6.7894531e+01   4.6210938e+01   6.4162109e+01
   6.8072266e+01   4.6210938e+01   6.4339844e+01
   6.7983398e+01   4.5944336e+01   6.4073242e+01
   6.7805664e+01   4.5766602e+01   6.4073242e+01
   6.6916992e+01   4.6477539e+01   6.4250977e+01
   6.7272461e+01   4.6655273e+01   6.4073242e+01
   6.7094727e+01   4.6477539e+01   6.4073242e+01
   7.0027344e+01   4.6033203e+01   6.2562500e+01
   7.0205078e+01   4.5855469e+01   6.2562500e+01
   7.0027344e+01   4.5677734e+01   6.2562500e+01
   6.9849609e+01   4.5855469e+01   6.2562500e+01
   7.0738281e+01   4.5677734e+01   6.2562500e+01
   7.0560547e+01   4.5855469e+01   6.2562500e+01
   6.8338867e+01   4.5944336e+01   6.2829102e+01
   6.8338867e+01   4.5766602e+01   6.3006836e+01
   6.8960938e+01   4.5855469e+01   6.3095703e+01
   6.8960938e+01   4.6033203e+01   6.2917969e+01
   6.8960938e+01   4.5855469e+01   6.2740234e+01
   6.8960938e+01   4.5677734e+01   6.2917969e+01
   6.8605469e+01   4.6210938e+01   6.2740234e+01
   6.8783203e+01   4.6210938e+01   6.2917969e+01
   6.8605469e+01   4.6210938e+01   6.3095703e+01
   6.8427734e+01   4.6210938e+01   6.2917969e+01
   6.8694336e+01   4.5766602e+01   6.2651367e+01
   6.8516602e+01   4.5944336e+01   6.2651367e+01
   6.8605469e+01   4.6033203e+01   6.3273438e+01
   6.8783203e+01   4.5855469e+01   6.3273438e+01
   6.8605469e+01   4.5677734e+01   6.3273438e+01
   6.8427734e+01   4.5855469e+01   6.3273438e+01
   6.9671875e+01   4.5855469e+01   6.3095703e+01
   6.9671875e+01   4.6033203e+01   6.2917969e+01
   6.9671875e+01   4.5855469e+01   6.2740234e+01
   6.9671875e+01   4.5677734e+01   6.2917969e+01
   6.9316406e+01   4.6210938e+01   6.2740234e+01
   6.9494141e+01   4.6210938e+01   6.2917969e+01
   6.9316406e+01   4.6210938e+01   6.3095703e+01
   6.9138672e+01   4.6210938e+01   6.2917969e+01
   6.9405273e+01   4.5944336e+01   6.2651367e+01
   6.9227539e+01   4.5766602e+01   6.2651367e+01
   6.9316406e+01   4.6033203e+01   6.3273438e+01
   6.9494141e+01   4.5855469e+01   6.3273438e+01
   6.9316406e+01   4.5677734e+01   6.3273438e+01
   6.9138672e+01   4.5855469e+01   6.3273438e+01
   6.8338867e+01   4.6655273e+01   6.3006836e+01
   6.8338867e+01   4.6477539e+01   6.2829102e+01
   6.8960938e+01   4.6566406e+01   6.2740234e+01
   6.8960938e+01   4.6388672e+01   6.2917969e+01
   6.8694336e+01   4.6655273e+01   6.2651367e+01
   6.8516602e+01   4.6477539e+01   6.2651367e+01
   6.8605469e+01   4.6388672e+01   6.3273438e+01
   6.8338867e+01   4.5944336e+01   6.3717773e+01
   6.8338867e+01   4.5766602e+01   6.3540039e+01
   6.8960938e+01   4.5855469e+01   6.3806641e+01
   6.8960938e+01   4.6033203e+01   6.3628906e+01
   6.8960938e+01   4.5855469e+01   6.3451172e+01
   6.8960938e+01   4.5677734e+01   6.3628906e+01
   6.8605469e+01   4.6210938e+01   6.3451172e+01
   6.8783203e+01   4.6210938e+01   6.3628906e+01
   6.8605469e+01   4.6210938e+01   6.3806641e+01
   6.8427734e+01   4.6210938e+01   6.3628906e+01
   6.8605469e+01   4.6033203e+01   6.3984375e+01
   6.8783203e+01   4.5855469e+01   6.3984375e+01
   6.8605469e+01   4.5677734e+01   6.3984375e+01
   6.8427734e+01   4.5855469e+01   6.3984375e+01
   6.9671875e+01   4.5855469e+01   6.3806641e+01
   6.9671875e+01   4.5855469e+01   6.3451172e+01
   6.9671875e+01   4.5677734e+01   6.3628906e+01
   6.9316406e+01   4.5677734e+01   6.3984375e+01
   6.9138672e+01   4.5855469e+01   6.3984375e+01
   7.0382812e+01   4.5855469e+01   6.3095703e+01
   7.0382812e+01   4.5855469e+01   6.2740234e+01
   7.0382812e+01   4.5677734e+01   6.2917969e+01
   7.0205078e+01   4.5855469e+01   6.3273438e+01
   7.0027344e+01   4.5677734e+01   6.3273438e+01
   6.9849609e+01   4.5855469e+01   6.3273438e+01
   7.1093750e+01   4.5677734e+01   6.2917969e+01
   7.0738281e+01   4.5677734e+01   6.3273438e+01
   6.8960938e+01   4.5855469e+01   6.4162109e+01
   7.2446980e+01   4.3040845e+01   6.3076356e+01
   7.2506820e+01   4.3207030e+01   6.2910172e+01
   7.2482111e+01   4.2978205e+01   6.2706721e+01
   7.2590334e+01   4.2999426e+01   6.2863235e+01
   7.2489918e+01   4.2922107e+01   6.2940553e+01
   7.2127387e+01   4.2866754e+01   6.3240668e+01
   7.2296549e+01   4.3417303e+01   6.3588570e+01
   7.2085496e+01   4.3332079e+01   6.3841749e+01
   7.2106398e+01   4.3420946e+01   6.3752882e+01
   7.2481744e+01   4.3934271e+01   6.3595026e+01
   7.2494160e+01   4.3664025e+01   6.3519582e+01
   7.2088885e+01   4.3604146e+01   6.3925151e+01
   7.2684555e+01   4.3384765e+01   6.2910172e+01
   7.2944682e+01   4.4064711e+01   6.3217583e+01
   7.2904105e+01   4.4153578e+01   6.3128716e+01
   7.2836459e+01   4.4043490e+01   6.3061068e+01
   7.2877035e+01   4.3954623e+01   6.3236433e+01
   7.2836459e+01   4.3865756e+01   6.3147565e+01
   7.2825967e+01   4.3598821e+01   6.3138080e+01
   7.2671895e+01   4.3752893e+01   6.3339478e+01
   7.2800600e+01   4.4108362e+01   6.3430715e+01
   7.2671156e+01   4.4108362e+01   6.3608449e+01
   7.3128152e+01   4.4451172e+01   6.3354508e+01
   7.2902127e+01   4.4184570e+01   6.3354508e+01
   7.2861551e+01   4.4273438e+01   6.3265641e+01
   7.2264955e+01   4.4139013e+01   6.4278957e+01
   7.2440965e+01   4.4398485e+01   6.4197218e+01
