   6.9316406e+01   4.7455078e+01   6.5406250e+01
   6.9494141e+01   4.7277344e+01   6.5406250e+01
   6.9316406e+01   4.7810547e+01   6.5406250e+01
   7.0027344e+01   4.7632812e+01   6.5228516e+01
   7.0027344e+01   4.7455078e+01   6.5406250e+01
   7.0205078e+01   4.7277344e+01   6.5406250e+01
   7.0027344e+01   4.7099609e+01   6.5406250e+01
   6.9849609e+01   4.7277344e+01   6.5406250e+01
   7.0027344e+01   4.7810547e+01   6.5406250e+01
   6.8605469e+01   4.6033203e+01   6.6117188e+01
   6.9316406e+01   4.6210938e+01   6.5939453e+01
   6.9316406e+01   4.6033203e+01   6.6117188e+01
   6.8960938e+01   4.6566406e+01   6.5939453e+01
   6.8960938e+01   4.6744141e+01   6.5761719e+01
   6.8783203e+01   4.6921875e+01   6.5761719e+01
   6.8605469e+01   4.6921875e+01   6.5939453e+01
   6.8427734e+01   4.6921875e+01   6.5761719e+01
   6.8605469e+01   4.6744141e+01   6.6117188e+01
   6.8783203e+01   4.6566406e+01   6.6117188e+01
   6.8605469e+01   4.6388672e+01   6.6117188e+01
   6.8427734e+01   4.6566406e+01   6.6117188e+01
   6.9671875e+01   4.6566406e+01   6.5939453e+01
   6.9671875e+01   4.6744141e+01   6.5761719e+01
   6.9671875e+01   4.6388672e+01   6.5761719e+01
   6.9316406e+01   4.6921875e+01   6.5583984e+01
   6.9494141e+01   4.6921875e+01   6.5761719e+01
   6.9316406e+01   4.6921875e+01   6.5939453e+01
   6.9138672e+01   4.6921875e+01   6.5761719e+01
   6.9316406e+01   4.6744141e+01   6.6117188e+01
   6.9494141e+01   4.6566406e+01   6.6117188e+01
   6.9316406e+01   4.6388672e+01   6.6117188e+01
   6.9138672e+01   4.6566406e+01   6.6117188e+01
   6.8605469e+01   4.6210938e+01   6.6294922e+01
   6.8783203e+01   4.6210938e+01   6.6472656e+01
   6.8605469e+01   4.6210938e+01   6.6650391e+01
   6.9316406e+01   4.6210938e+01   6.6294922e+01
   6.9494141e+01   4.6210938e+01   6.6472656e+01
   6.9316406e+01   4.6210938e+01   6.6650391e+01
   6.9138672e+01   4.6210938e+01   6.6472656e+01
   6.8960938e+01   4.6566406e+01   6.6650391e+01
   6.8960938e+01   4.6744141e+01   6.6472656e+01
   6.8960938e+01   4.6566406e+01   6.6294922e+01
   6.8960938e+01   4.6388672e+01   6.6472656e+01
   6.8605469e+01   4.6921875e+01   6.6294922e+01
   6.8783203e+01   4.6921875e+01   6.6472656e+01
   6.8605469e+01   4.6921875e+01   6.6650391e+01
   6.8605469e+01   4.6744141e+01   6.6828125e+01
   6.8783203e+01   4.6566406e+01   6.6828125e+01
   6.8605469e+01   4.6388672e+01   6.6828125e+01
   6.9671875e+01   4.6566406e+01   6.6650391e+01
   6.9671875e+01   4.6744141e+01   6.6472656e+01
   6.9671875e+01   4.6566406e+01   6.6294922e+01
   6.9671875e+01   4.6388672e+01   6.6472656e+01
   6.9316406e+01   4.6921875e+01   6.6294922e+01
   6.9494141e+01   4.6921875e+01   6.6472656e+01
   6.9316406e+01   4.6921875e+01   6.6650391e+01
   6.9138672e+01   4.6921875e+01   6.6472656e+01
   6.9316406e+01   4.6744141e+01   6.6828125e+01
   6.9494141e+01   4.6566406e+01   6.6828125e+01
   6.9316406e+01   4.6388672e+01   6.6828125e+01
   6.9138672e+01   4.6566406e+01   6.6828125e+01
   7.0205078e+01   4.6210938e+01   6.5761719e+01
   7.0027344e+01   4.6210938e+01   6.5939453e+01
   6.9849609e+01   4.6210938e+01   6.5761719e+01
   7.0027344e+01   4.6033203e+01   6.6117188e+01
   7.0382812e+01   4.6566406e+01   6.5939453e+01
   7.0382812e+01   4.6744141e+01   6.5761719e+01
   7.0382812e+01   4.6388672e+01   6.5761719e+01
   7.0027344e+01   4.6921875e+01   6.5583984e+01
   7.0205078e+01   4.6921875e+01   6.5761719e+01
   7.0027344e+01   4.6921875e+01   6.5939453e+01
   6.9849609e+01   4.6921875e+01   6.5761719e+01
   7.0027344e+01   4.6744141e+01   6.6117188e+01
   7.0205078e+01   4.6566406e+01   6.6117188e+01
   7.0027344e+01   4.6388672e+01   6.6117188e+01
   6.9849609e+01   4.6566406e+01   6.6117188e+01
   7.0027344e+01   4.6210938e+01   6.6294922e+01
   7.0205078e+01   4.6210938e+01   6.6472656e+01
   7.0027344e+01   4.6210938e+01   6.6650391e+01
   6.9849609e+01   4.6210938e+01   6.6472656e+01
   7.0382812e+01   4.6566406e+01   6.6650391e+01
   7.0382812e+01   4.6744141e+01   6.6472656e+01
   7.0382812e+01   4.6566406e+01   6.6294922e+01
   7.0382812e+01   4.6388672e+01   6.6472656e+01
   7.0027344e+01   4.6921875e+01   6.6294922e+01
   7.0205078e+01   4.6921875e+01   6.6472656e+01
   7.0027344e+01   4.6921875e+01   6.6650391e+01
   6.9849609e+01   4.6921875e+01   6.6472656e+01
   7.0027344e+01   4.6744141e+01   6.6828125e+01
   7.0205078e+01   4.6566406e+01   6.6828125e+01
   7.0027344e+01   4.6388672e+01   6.6828125e+01
   6.9849609e+01   4.6566406e+01   6.6828125e+01
   7.0560547e+01   4.6566406e+01   6.6828125e+01
   6.8960938e+01   4.7277344e+01   6.5939453e+01
   6.8960938e+01   4.7455078e+01   6.5761719e+01
   6.8960938e+01   4.7277344e+01   6.5583984e+01
   6.8960938e+01   4.7099609e+01   6.5761719e+01
   6.8605469e+01   4.7632812e+01   6.5583984e+01
   6.8783203e+01   4.7632812e+01   6.5761719e+01
   6.8605469e+01   4.7632812e+01   6.5939453e+01
   6.8427734e+01   4.7632812e+01   6.5761719e+01
   6.8605469e+01   4.7455078e+01   6.6117188e+01
   6.8783203e+01   4.7277344e+01   6.6117188e+01
   6.8605469e+01   4.7099609e+01   6.6117188e+01
   6.9671875e+01   4.7277344e+01   6.5939453e+01
   6.9671875e+01   4.7455078e+01   6.5761719e+01
   6.9671875e+01   4.7277344e+01   6.5583984e+01
   6.9671875e+01   4.7099609e+01   6.5761719e+01
   6.9316406e+01   4.7632812e+01   6.5583984e+01
   6.9494141e+01   4.7632812e+01   6.5761719e+01
   6.9316406e+01   4.7632812e+01   6.5939453e+01
   6.9138672e+01   4.7632812e+01   6.5761719e+01
   6.9316406e+01   4.7455078e+01   6.6117188e+01
   6.9494141e+01   4.7277344e+01   6.6117188e+01
   6.9316406e+01   4.7099609e+01   6.6117188e+01
   6.9138672e+01   4.7277344e+01   6.6117188e+01
   6.8960938e+01   4.7988281e+01   6.5939453e+01
   6.8960938e+01   4.7810547e+01   6.5761719e+01
   6.8783203e+01   4.7988281e+01   6.6117188e+01
   6.8605469e+01   4.7810547e+01   6.6117188e+01
   6.9671875e+01   4.7988281e+01   6.5939453e+01
   6.9671875e+01   4.7810547e+01   6.5761719e+01
   6.9494141e+01   4.7988281e+01   6.6117188e+01
   6.9316406e+01   4.7810547e+01   6.6117188e+01
   6.9138672e+01   4.7988281e+01   6.6117188e+01
   6.8960938e+01   4.7277344e+01   6.6650391e+01
   6.8960938e+01   4.7455078e+01   6.6472656e+01
   6.8960938e+01   4.7277344e+01   6.6294922e+01
   6.8960938e+01   4.7099609e+01   6.6472656e+01
   6.8605469e+01   4.7632812e+01   6.6294922e+01
   6.8783203e+01   4.7632812e+01   6.6472656e+01
   6.8605469e+01   4.7632812e+01   6.6650391e+01
   6.8605469e+01   4.7455078e+01   6.6828125e+01
   6.8783203e+01   4.7277344e+01   6.6828125e+01
   6.8605469e+01   4.7099609e+01   6.6828125e+01
   6.9671875e+01   4.7277344e+01   6.6650391e+01
   6.9671875e+01   4.7455078e+01   6.6472656e+01
   6.9671875e+01   4.7277344e+01   6.6294922e+01
   6.9671875e+01   4.7099609e+01   6.6472656e+01
   6.9316406e+01   4.7632812e+01   6.6294922e+01
   6.9494141e+01   4.7632812e+01   6.6472656e+01
   6.9316406e+01   4.7632812e+01   6.6650391e+01
   6.9138672e+01   4.7632812e+01   6.6472656e+01
   6.9316406e+01   4.7455078e+01   6.6828125e+01
   6.9494141e+01   4.7277344e+01   6.6828125e+01
   6.9316406e+01   4.7099609e+01   6.6828125e+01
   6.9138672e+01   4.7277344e+01   6.6828125e+01
   6.8960938e+01   4.7988281e+01   6.6650391e+01
   6.8960938e+01   4.8166016e+01   6.6472656e+01
   6.8960938e+01   4.7988281e+01   6.6294922e+01
   6.8960938e+01   4.7810547e+01   6.6472656e+01
   6.8783203e+01   4.7988281e+01   6.6828125e+01
   6.8605469e+01   4.7810547e+01   6.6828125e+01
   6.9671875e+01   4.7988281e+01   6.6650391e+01
   6.9671875e+01   4.8166016e+01   6.6472656e+01
   6.9671875e+01   4.7988281e+01   6.6294922e+01
   6.9671875e+01   4.7810547e+01   6.6472656e+01
   6.9316406e+01   4.8343750e+01   6.6650391e+01
   6.9316406e+01   4.8166016e+01   6.6828125e+01
   6.9494141e+01   4.7988281e+01   6.6828125e+01
   6.9316406e+01   4.7810547e+01   6.6828125e+01
   6.9138672e+01   4.7988281e+01   6.6828125e+01
   7.0382812e+01   4.7277344e+01   6.5939453e+01
   7.0382812e+01   4.7455078e+01   6.5761719e+01
   7.0382812e+01   4.7277344e+01   6.5583984e+01
   7.0382812e+01   4.7099609e+01   6.5761719e+01
   7.0027344e+01   4.7632812e+01   6.5583984e+01
   7.0205078e+01   4.7632812e+01   6.5761719e+01
   7.0027344e+01   4.7632812e+01   6.5939453e+01
   6.9849609e+01   4.7632812e+01   6.5761719e+01
   7.0027344e+01   4.7455078e+01   6.6117188e+01
   7.0205078e+01   4.7277344e+01   6.6117188e+01
   7.0027344e+01   4.7099609e+01   6.6117188e+01
   6.9849609e+01   4.7277344e+01   6.6117188e+01
   7.0382812e+01   4.7988281e+01   6.5939453e+01
   7.0382812e+01   4.7810547e+01   6.5761719e+01
   7.0205078e+01   4.7988281e+01   6.6117188e+01
   7.0027344e+01   4.7810547e+01   6.6117188e+01
   6.9849609e+01   4.7988281e+01   6.6117188e+01
   7.0382812e+01   4.7277344e+01   6.6650391e+01
   7.0382812e+01   4.7455078e+01   6.6472656e+01
   7.0382812e+01   4.7277344e+01   6.6294922e+01
   7.0382812e+01   4.7099609e+01   6.6472656e+01
   7.0027344e+01   4.7632812e+01   6.6294922e+01
   7.0205078e+01   4.7632812e+01   6.6472656e+01
   7.0027344e+01   4.7632812e+01   6.6650391e+01
   6.9849609e+01   4.7632812e+01   6.6472656e+01
   7.0027344e+01   4.7455078e+01   6.6828125e+01
   7.0205078e+01   4.7277344e+01   6.6828125e+01
   7.0027344e+01   4.7099609e+01   6.6828125e+01
   6.9849609e+01   4.7277344e+01   6.6828125e+01
   7.0560547e+01   4.7632812e+01   6.6472656e+01
   7.0560547e+01   4.7277344e+01   6.6828125e+01
   7.0382812e+01   4.7988281e+01   6.6650391e+01
   7.0382812e+01   4.8166016e+01   6.6472656e+01
   7.0382812e+01   4.7988281e+01   6.6294922e+01
   7.0382812e+01   4.7810547e+01   6.6472656e+01
   7.0027344e+01   4.8343750e+01   6.6650391e+01
   7.0027344e+01   4.8166016e+01   6.6828125e+01
   7.0205078e+01   4.7988281e+01   6.6828125e+01
   7.0027344e+01   4.7810547e+01   6.6828125e+01
   6.9849609e+01   4.7988281e+01   6.6828125e+01
   7.0560547e+01   4.7988281e+01   6.6828125e+01
   6.8960938e+01   4.6566406e+01   6.7361328e+01
   6.8960938e+01   4.6744141e+01   6.7183594e+01
   6.8960938e+01   4.6566406e+01   6.7005859e+01
   6.8605469e+01   4.6921875e+01   6.7005859e+01
   6.8783203e+01   4.6921875e+01   6.7183594e+01
   6.8783203e+01   4.6566406e+01   6.7539062e+01
   6.9671875e+01   4.6566406e+01   6.7361328e+01
   6.9671875e+01   4.6744141e+01   6.7183594e+01
   6.9671875e+01   4.6566406e+01   6.7005859e+01
   6.9316406e+01   4.6921875e+01   6.7005859e+01
   6.9494141e+01   4.6921875e+01   6.7183594e+01
   6.9316406e+01   4.6921875e+01   6.7361328e+01
   6.9138672e+01   4.6921875e+01   6.7183594e+01
   6.9316406e+01   4.6744141e+01   6.7539062e+01
   6.9494141e+01   4.6566406e+01   6.7539062e+01
   6.9138672e+01   4.6566406e+01   6.7539062e+01
   6.8960938e+01   4.6744141e+01   6.7894531e+01
   6.8783203e+01   4.6921875e+01   6.7894531e+01
   6.9671875e+01   4.6744141e+01   6.7894531e+01
   6.9316406e+01   4.6921875e+01   6.7716797e+01
   6.9494141e+01   4.6921875e+01   6.7894531e+01
   6.9316406e+01   4.6921875e+01   6.8072266e+01
   6.9138672e+01   4.6921875e+01   6.7894531e+01
   7.0395596e+01   4.6567240e+01   6.7373652e+01
   7.0382812e+01   4.6744141e+01   6.7183594e+01
   7.0382812e+01   4.6566406e+01   6.7005859e+01
   7.0027344e+01   4.6921875e+01   6.7005859e+01
   7.0205078e+01   4.6921875e+01   6.7183594e+01
   7.0027344e+01   4.6921875e+01   6.7361328e+01
   6.9849609e+01   4.6921875e+01   6.7183594e+01
   7.0027344e+01   4.6744141e+01   6.7539062e+01
   7.0560547e+01   4.6921875e+01   6.7183594e+01
   7.0624977e+01   4.6833236e+01   6.7516994e+01
   7.0573330e+01   4.6567240e+01   6.7422822e+01
   7.0027344e+01   4.6921875e+01   6.7716797e+01
   6.9849609e+01   4.6921875e+01   6.7894531e+01
   7.0556828e+01   4.6942822e+01   6.7626580e+01
   7.0470330e+01   4.6942822e+01   6.7694545e+01
   6.8960938e+01   4.7277344e+01   6.7361328e+01
   6.8960938e+01   4.7455078e+01   6.7183594e+01
   6.8960938e+01   4.7277344e+01   6.7005859e+01
   6.8960938e+01   4.7099609e+01   6.7183594e+01
   6.8783203e+01   4.7632812e+01   6.7183594e+01
   6.8783203e+01   4.7277344e+01   6.7539062e+01
   6.9671875e+01   4.7277344e+01   6.7361328e+01
   6.9671875e+01   4.7455078e+01   6.7183594e+01
   6.9671875e+01   4.7277344e+01   6.7005859e+01
   6.9671875e+01   4.7099609e+01   6.7183594e+01
   6.9316406e+01   4.7632812e+01   6.7005859e+01
   6.9494141e+01   4.7632812e+01   6.7183594e+01
   6.9316406e+01   4.7632812e+01   6.7361328e+01
   6.9138672e+01   4.7632812e+01   6.7183594e+01
   6.9316406e+01   4.7455078e+01   6.7539062e+01
   6.9494141e+01   4.7277344e+01   6.7539062e+01
   6.9316406e+01   4.7099609e+01   6.7539062e+01
   6.9138672e+01   4.7277344e+01   6.7539062e+01
   6.8960938e+01   4.7988281e+01   6.7361328e+01
   6.8960938e+01   4.8166016e+01   6.7183594e+01
   6.8960938e+01   4.7988281e+01   6.7005859e+01
   6.8960938e+01   4.7810547e+01   6.7183594e+01
   6.8783203e+01   4.8343750e+01   6.7183594e+01
   6.8783203e+01   4.7988281e+01   6.7539062e+01
   6.9671875e+01   4.7988281e+01   6.7361328e+01
   6.9671875e+01   4.8166016e+01   6.7183594e+01
   6.9671875e+01   4.7988281e+01   6.7005859e+01
   6.9671875e+01   4.7810547e+01   6.7183594e+01
   6.9316406e+01   4.8343750e+01   6.7005859e+01
   6.9494141e+01   4.8343750e+01   6.7183594e+01
   6.9316406e+01   4.8343750e+01   6.7361328e+01
   6.9138672e+01   4.8343750e+01   6.7183594e+01
   6.9316406e+01   4.8166016e+01   6.7539062e+01
   6.9494141e+01   4.7988281e+01   6.7539062e+01
   6.9316406e+01   4.7810547e+01   6.7539062e+01
   6.9138672e+01   4.7988281e+01   6.7539062e+01
   6.8960938e+01   4.7277344e+01   6.8072266e+01
   6.8960938e+01   4.7455078e+01   6.7894531e+01
   6.8960938e+01   4.7277344e+01   6.7716797e+01
   6.8960938e+01   4.7099609e+01   6.7894531e+01
   6.9671875e+01   4.7277344e+01   6.8072266e+01
   6.9671875e+01   4.7455078e+01   6.7894531e+01
   6.9671875e+01   4.7277344e+01   6.7716797e+01
   6.9671875e+01   4.7099609e+01   6.7894531e+01
   6.9316406e+01   4.7632812e+01   6.7716797e+01
   6.9494141e+01   4.7632812e+01   6.7894531e+01
   6.9316406e+01   4.7632812e+01   6.8072266e+01
   6.9138672e+01   4.7632812e+01   6.7894531e+01
   6.9316406e+01   4.7455078e+01   6.8250000e+01
   6.9494141e+01   4.7277344e+01   6.8250000e+01
   6.9316406e+01   4.7099609e+01   6.8250000e+01
   6.9138672e+01   4.7277344e+01   6.8250000e+01
   6.8960938e+01   4.7988281e+01   6.8072266e+01
   6.8960938e+01   4.8166016e+01   6.7894531e+01
   6.8960938e+01   4.7988281e+01   6.7716797e+01
   6.8960938e+01   4.7810547e+01   6.7894531e+01
   6.9671875e+01   4.7988281e+01   6.8072266e+01
   6.9671875e+01   4.8166016e+01   6.7894531e+01
   6.9671875e+01   4.7988281e+01   6.7716797e+01
   6.9671875e+01   4.7810547e+01   6.7894531e+01
   6.9316406e+01   4.8343750e+01   6.7716797e+01
   6.9494141e+01   4.8343750e+01   6.7894531e+01
   6.9316406e+01   4.8343750e+01   6.8072266e+01
   6.9138672e+01   4.8343750e+01   6.7894531e+01
   6.9316406e+01   4.8166016e+01   6.8250000e+01
   6.9494141e+01   4.7988281e+01   6.8250000e+01
   6.9316406e+01   4.7810547e+01   6.8250000e+01
   6.9138672e+01   4.7988281e+01   6.8250000e+01
   7.0382812e+01   4.7277344e+01   6.7361328e+01
   7.0382812e+01   4.7455078e+01   6.7183594e+01
   7.0382812e+01   4.7277344e+01   6.7005859e+01
   7.0382812e+01   4.7099609e+01   6.7183594e+01
   7.0027344e+01   4.7632812e+01   6.7005859e+01
   7.0205078e+01   4.7632812e+01   6.7183594e+01
   7.0027344e+01   4.7632812e+01   6.7361328e+01
   6.9849609e+01   4.7632812e+01   6.7183594e+01
   7.0027344e+01   4.7455078e+01   6.7539062e+01
   7.0205078e+01   4.7277344e+01   6.7539062e+01
   7.0027344e+01   4.7099609e+01   6.7539062e+01
   6.9849609e+01   4.7277344e+01   6.7539062e+01
   7.0560547e+01   4.7632812e+01   6.7183594e+01
   7.0670377e+01   4.7477713e+01   6.7644992e+01
   7.0666875e+01   4.7010510e+01   6.7558893e+01
   7.0525912e+01   4.7242709e+01   6.7632992e+01
   7.0382812e+01   4.7988281e+01   6.7361328e+01
   7.0382812e+01   4.8166016e+01   6.7183594e+01
   7.0382812e+01   4.7988281e+01   6.7005859e+01
   7.0382812e+01   4.7810547e+01   6.7183594e+01
   7.0027344e+01   4.8343750e+01   6.7005859e+01
   7.0205078e+01   4.8343750e+01   6.7183594e+01
   7.0027344e+01   4.8343750e+01   6.7361328e+01
   6.9849609e+01   4.8343750e+01   6.7183594e+01
   7.0027344e+01   4.8166016e+01   6.7539062e+01
   7.0205078e+01   4.7988281e+01   6.7539062e+01
   7.0027344e+01   4.7810547e+01   6.7539062e+01
   6.9849609e+01   4.7988281e+01   6.7539062e+01
   7.0738281e+01   4.8343750e+01   6.7361328e+01
   7.0560547e+01   4.8343750e+01   6.7183594e+01
   7.0717061e+01   4.8187235e+01   6.7650307e+01
   7.0736609e+01   4.7721680e+01   6.7582660e+01
   7.0537912e+01   4.7965646e+01   6.7648893e+01
   7.0228514e+01   4.7297589e+01   6.7984994e+01
   7.0525117e+01   4.7354211e+01   6.7748395e+01
   7.0348178e+01   4.7064975e+01   6.7750127e+01
   7.0027344e+01   4.7632812e+01   6.7716797e+01
   7.0237797e+01   4.7710801e+01   6.7927250e+01
   6.9849609e+01   4.7632812e+01   6.7894531e+01
   6.9999125e+01   4.7544834e+01   6.8270951e+01
   7.0117807e+01   4.7297589e+01   6.8073861e+01
   7.0023951e+01   4.7153368e+01   6.8107375e+01
   6.9794256e+01   4.7221990e+01   6.8194646e+01
   7.0647742e+01   4.7632812e+01   6.7671527e+01
   7.0302449e+01   4.8010407e+01   6.8037631e+01
   7.0560289e+01   4.8075733e+01   6.7761809e+01
   7.0492643e+01   4.7787912e+01   6.7826627e+01
   7.0027344e+01   4.8343750e+01   6.7716797e+01
   7.0192619e+01   4.8343241e+01   6.7882531e+01
   7.0014885e+01   4.8343241e+01   6.8060266e+01
   6.9849609e+01   4.8343750e+01   6.7894531e+01
   6.9992250e+01   4.8188142e+01   6.8215365e+01
   7.0169984e+01   4.8010407e+01   6.8170096e+01
   7.0133273e+01   4.7833182e+01   6.8182096e+01
   6.9825023e+01   4.7963696e+01   6.8225414e+01
   6.8960938e+01   4.8521484e+01   6.7183594e+01
   6.8783203e+01   4.8699219e+01   6.7539062e+01
   6.9671875e+01   4.8521484e+01   6.7183594e+01
   6.9494141e+01   4.8699219e+01   6.7539062e+01
   6.9316406e+01   4.8521484e+01   6.7539062e+01
   6.9138672e+01   4.8699219e+01   6.7539062e+01
   6.8960938e+01   4.8699219e+01   6.8072266e+01
   6.8960938e+01   4.8699219e+01   6.7716797e+01
   6.8960938e+01   4.8521484e+01   6.7894531e+01
   6.9671875e+01   4.8699219e+01   6.8072266e+01
   6.9671875e+01   4.8876953e+01   6.7894531e+01
   6.9671875e+01   4.8699219e+01   6.7716797e+01
   6.9671875e+01   4.8521484e+01   6.7894531e+01
   6.9316406e+01   4.8876953e+01   6.8250000e+01
   6.9494141e+01   4.8699219e+01   6.8250000e+01
   6.9316406e+01   4.8521484e+01   6.8250000e+01
   6.9138672e+01   4.8699219e+01   6.8250000e+01
   7.0382812e+01   4.8521484e+01   6.7183594e+01
   7.0205078e+01   4.8699219e+01   6.7539062e+01
   7.0027344e+01   4.8521484e+01   6.7539062e+01
   6.9849609e+01   4.8699219e+01   6.7539062e+01
   7.0738281e+01   4.8521484e+01   6.7539062e+01
   7.0560547e+01   4.8699219e+01   6.7539062e+01
   7.0370354e+01   4.8698710e+01   6.8060266e+01
   7.0382812e+01   4.8876953e+01   6.7894531e+01
   7.0382812e+01   4.8699219e+01   6.7716797e+01
   7.0370354e+01   4.8520976e+01   6.7882531e+01
   7.0014885e+01   4.8520976e+01   6.8238000e+01
   6.9849609e+01   4.8699219e+01   6.8250000e+01
   7.0827406e+01   4.8700634e+01   6.7938387e+01
   7.0782137e+01   4.8700634e+01   6.7982908e+01
   7.0658176e+01   4.8588623e+01   6.8037141e+01
   6.9778389e+01   4.6932754e+01   6.8306148e+01
   6.8960938e+01   4.7277344e+01   6.8783203e+01
   6.8960938e+01   4.7455078e+01   6.8605469e+01
   6.8960938e+01   4.7277344e+01   6.8427734e+01
   6.8960938e+01   4.7099609e+01   6.8605469e+01
   6.9495029e+01   4.7298294e+01   6.8695225e+01
   6.9603959e+01   4.7367100e+01   6.8626420e+01
   6.9670986e+01   4.7345260e+01   6.8426846e+01
   6.9616521e+01   4.7044256e+01   6.8421551e+01
   6.9316406e+01   4.7632812e+01   6.8427734e+01
   6.9138672e+01   4.7632812e+01   6.8605469e+01
   6.9406162e+01   4.7298294e+01   6.8784092e+01
   6.9083318e+01   4.7221990e+01   6.8994451e+01
   6.8960938e+01   4.8166016e+01   6.8605469e+01
   6.8960938e+01   4.7988281e+01   6.8427734e+01
   6.8960938e+01   4.7810547e+01   6.8605469e+01
   6.9713521e+01   4.8075198e+01   6.8469381e+01
   6.9647289e+01   4.7785962e+01   6.8531713e+01
   6.9316406e+01   4.8343750e+01   6.8427734e+01
   6.9919186e+01   4.7642630e+01   6.8368746e+01
   6.8960938e+01   4.8699219e+01   6.8427734e+01
   7.0682928e+01   4.6866521e+01   6.7305975e+01
   7.0627346e+01   4.6744369e+01   6.7477297e+01
   7.0682928e+01   4.6688787e+01   6.7355145e+01
   7.0517748e+01   4.6622822e+01   6.7544975e+01
   7.0376400e+01   4.6799723e+01   6.7729180e+01
   7.0279432e+01   4.6769323e+01   6.7809945e+01
   7.0176504e+01   4.7000816e+01   6.7933922e+01
   7.0230262e+01   4.6947058e+01   6.7809945e+01
   7.0141395e+01   4.6858190e+01   6.7830848e+01
   6.9899975e+01   4.6921875e+01   6.8072266e+01
   7.0049135e+01   4.7000816e+01   6.8043691e+01
   7.0014025e+01   4.6858190e+01   6.8008582e+01
   7.0713695e+01   4.7608228e+01   6.7336742e+01
   7.0713695e+01   4.7430493e+01   6.7465307e+01
   7.0669244e+01   4.7099377e+01   6.7598590e+01
   7.0703879e+01   4.7134012e+01   6.7455490e+01
   7.0560547e+01   4.7277344e+01   6.7489893e+01
   7.0592145e+01   4.7354211e+01   6.7699225e+01
   7.0738281e+01   4.8166016e+01   6.7493793e+01
   7.0693012e+01   4.7810547e+01   6.7626258e+01
   7.0715646e+01   4.7833182e+01   6.7471158e+01
   7.0560547e+01   4.7988281e+01   6.7493793e+01
   7.0605559e+01   4.8075733e+01   6.7716539e+01
   7.0470885e+01   4.7477713e+01   6.7826627e+01
   7.0371139e+01   4.7510432e+01   6.7904615e+01
   7.0282271e+01   4.7421564e+01   6.7861018e+01
   7.0370018e+01   4.7331576e+01   6.7771029e+01
   7.0348178e+01   4.7242709e+01   6.7682162e+01
   7.0370018e+01   4.7153842e+01   6.7838994e+01
   7.0262027e+01   4.7153368e+01   6.7908738e+01
   7.0171564e+01   4.7599299e+01   6.7861018e+01
   7.0326664e+01   4.7621934e+01   6.7970848e+01
   7.0033527e+01   4.7688166e+01   6.8127619e+01
   6.9993830e+01   4.7599299e+01   6.8038752e+01
   7.0188627e+01   4.7710801e+01   6.8104984e+01
   6.9959428e+01   4.7455967e+01   6.8270951e+01
   6.9993830e+01   4.7421564e+01   6.8127619e+01
   6.9933488e+01   4.7133123e+01   6.8194646e+01
   6.9844621e+01   4.7044256e+01   6.8194646e+01
   6.9848721e+01   4.7345260e+01   6.8337979e+01
   6.9883123e+01   4.7310857e+01   6.8194646e+01
   7.0515277e+01   4.7632812e+01   6.7803992e+01
   7.0481598e+01   4.8186727e+01   6.7861311e+01
   7.0325084e+01   4.8165507e+01   6.7882531e+01
   7.0492643e+01   4.7965646e+01   6.7694162e+01
   7.0337543e+01   4.7988281e+01   6.7716797e+01
   7.0403775e+01   4.7744314e+01   6.7915494e+01
   7.0314908e+01   4.7833182e+01   6.7871896e+01
   7.0081117e+01   4.8099274e+01   6.8258963e+01
   7.0042455e+01   4.7874829e+01   6.8269012e+01
   6.9953588e+01   4.7785962e+01   6.8225414e+01
   6.9980123e+01   4.7986331e+01   6.8335244e+01
   6.9891256e+01   4.8075198e+01   6.8291646e+01
   7.0717061e+01   4.8364970e+01   6.7695576e+01
   7.0805928e+01   4.8364970e+01   6.7784443e+01
   7.0658176e+01   4.8499756e+01   6.7992619e+01
   7.0526867e+01   4.8364461e+01   6.7861311e+01
   7.0615734e+01   4.8364461e+01   6.7950178e+01
   7.0672049e+01   4.8810721e+01   6.8050555e+01
   7.0548088e+01   4.8698710e+01   6.8104787e+01
   6.9728023e+01   4.6932754e+01   6.8355318e+01
   6.9603959e+01   4.7455967e+01   6.8666117e+01
   6.9637473e+01   4.7489480e+01   6.8521896e+01
   6.9616521e+01   4.7221990e+01   6.8372381e+01
   6.9670986e+01   4.7256393e+01   6.8515713e+01
   6.9562057e+01   4.7098720e+01   6.8544820e+01
   6.9562057e+01   4.7187587e+01   6.8584518e+01
   6.9460627e+01   4.7599299e+01   6.8700520e+01
   6.9494141e+01   4.7632812e+01   6.8556299e+01
   6.9282893e+01   4.7599299e+01   6.8749689e+01
   6.9282893e+01   4.7421564e+01   6.8838557e+01
   6.9261941e+01   4.7154073e+01   6.8817605e+01
   6.9138672e+01   4.7277344e+01   6.8872070e+01
   6.9647289e+01   4.7963696e+01   6.8403148e+01
   6.9757119e+01   4.7986331e+01   6.8558248e+01
   6.9624654e+01   4.7808597e+01   6.8686813e+01
   6.9790621e+01   4.7642630e+01   6.8497311e+01
