   6.7539062e+01   4.3722656e+01   6.8072266e+01
   6.7539062e+01   4.3900391e+01   6.7894531e+01
   6.7183594e+01   4.3900391e+01   6.8250000e+01
   6.7361328e+01   4.3722656e+01   6.8250000e+01
   6.7183594e+01   4.3544922e+01   6.8250000e+01
   6.7894531e+01   4.4078125e+01   6.7716797e+01
   6.8072266e+01   4.4078125e+01   6.7894531e+01
   6.7894531e+01   4.4078125e+01   6.8072266e+01
   6.7716797e+01   4.4078125e+01   6.7894531e+01
   6.7894531e+01   4.3900391e+01   6.8250000e+01
   6.8072266e+01   4.3722656e+01   6.8250000e+01
   6.7716797e+01   4.3722656e+01   6.8250000e+01
   6.8250000e+01   4.4433594e+01   6.7361328e+01
   6.8250000e+01   4.4611328e+01   6.7183594e+01
   6.7894531e+01   4.4611328e+01   6.7539062e+01
   6.8072266e+01   4.4433594e+01   6.7539062e+01
   6.7894531e+01   4.4255859e+01   6.7539062e+01
   6.8250000e+01   4.5144531e+01   6.7361328e+01
   6.8250000e+01   4.4966797e+01   6.7183594e+01
   6.8072266e+01   4.5144531e+01   6.7539062e+01
   6.7539062e+01   4.4433594e+01   6.8072266e+01
   6.7539062e+01   4.4255859e+01   6.7894531e+01
   6.7361328e+01   4.4433594e+01   6.8250000e+01
   6.8250000e+01   4.4433594e+01   6.8072266e+01
   6.8250000e+01   4.4611328e+01   6.7894531e+01
   6.8250000e+01   4.4433594e+01   6.7716797e+01
   6.8250000e+01   4.4255859e+01   6.7894531e+01
   6.7894531e+01   4.4789062e+01   6.7716797e+01
   6.8072266e+01   4.4789062e+01   6.7894531e+01
   6.7894531e+01   4.4789062e+01   6.8072266e+01
   6.7716797e+01   4.4789062e+01   6.7894531e+01
   6.7894531e+01   4.4611328e+01   6.8250000e+01
   6.8072266e+01   4.4433594e+01   6.8250000e+01
   6.7894531e+01   4.4255859e+01   6.8250000e+01
   6.7716797e+01   4.4433594e+01   6.8250000e+01
   6.8250000e+01   4.5144531e+01   6.8072266e+01
   6.8250000e+01   4.5322266e+01   6.7894531e+01
   6.8250000e+01   4.5144531e+01   6.7716797e+01
   6.8250000e+01   4.4966797e+01   6.7894531e+01
   6.8072266e+01   4.5500000e+01   6.7894531e+01
   6.7894531e+01   4.5500000e+01   6.8072266e+01
   6.7894531e+01   4.5322266e+01   6.8250000e+01
   6.8072266e+01   4.5144531e+01   6.8250000e+01
   6.7894531e+01   4.4966797e+01   6.8250000e+01
   6.7716797e+01   4.5144531e+01   6.8250000e+01
   6.8960938e+01   4.5144531e+01   6.6650391e+01
   6.8960938e+01   4.5322266e+01   6.6472656e+01
   6.8783203e+01   4.5144531e+01   6.6828125e+01
   6.8605469e+01   4.4966797e+01   6.6828125e+01
   6.9316406e+01   4.5500000e+01   6.6294922e+01
   6.9494141e+01   4.5500000e+01   6.6472656e+01
   6.9316406e+01   4.5500000e+01   6.6650391e+01
   6.9138672e+01   4.5500000e+01   6.6472656e+01
   6.9316406e+01   4.5322266e+01   6.6828125e+01
   6.9494141e+01   4.5144531e+01   6.6828125e+01
   6.9138672e+01   4.5144531e+01   6.6828125e+01
   7.0205078e+01   4.5500000e+01   6.6472656e+01
   7.0027344e+01   4.5500000e+01   6.6650391e+01
   6.9849609e+01   4.5500000e+01   6.6472656e+01
   7.0027344e+01   4.5322266e+01   6.6828125e+01
   7.0710062e+01   4.5412022e+01   6.6849076e+01
   6.8826264e+01   4.4163628e+01   6.7937592e+01
   6.8427734e+01   4.4078125e+01   6.7894531e+01
   6.8538687e+01   4.3922651e+01   6.8227740e+01
   6.8605469e+01   4.4789062e+01   6.7005859e+01
   6.8783203e+01   4.4789062e+01   6.7183594e+01
   6.8605469e+01   4.4789062e+01   6.7361328e+01
   6.8427734e+01   4.4789062e+01   6.7183594e+01
   6.8605469e+01   4.4611328e+01   6.7539062e+01
   6.8783203e+01   4.4433594e+01   6.7539062e+01
   6.8427734e+01   4.4433594e+01   6.7539062e+01
   6.9316406e+01   4.4789062e+01   6.7361328e+01
   6.9138672e+01   4.4789062e+01   6.7183594e+01
   6.9316406e+01   4.4611328e+01   6.7539062e+01
   6.8960938e+01   4.5144531e+01   6.7361328e+01
   6.8960938e+01   4.5322266e+01   6.7183594e+01
   6.8960938e+01   4.5144531e+01   6.7005859e+01
   6.8960938e+01   4.4966797e+01   6.7183594e+01
   6.8605469e+01   4.5500000e+01   6.7005859e+01
   6.8783203e+01   4.5500000e+01   6.7183594e+01
   6.8605469e+01   4.5500000e+01   6.7361328e+01
   6.8427734e+01   4.5500000e+01   6.7183594e+01
   6.8605469e+01   4.5322266e+01   6.7539062e+01
   6.8783203e+01   4.5144531e+01   6.7539062e+01
   6.8605469e+01   4.4966797e+01   6.7539062e+01
   6.8427734e+01   4.5144531e+01   6.7539062e+01
   6.9671875e+01   4.5144531e+01   6.7361328e+01
   6.9671875e+01   4.5322266e+01   6.7183594e+01
   6.9671875e+01   4.5144531e+01   6.7005859e+01
   6.9671875e+01   4.4966797e+01   6.7183594e+01
   6.9316406e+01   4.5500000e+01   6.7005859e+01
   6.9494141e+01   4.5500000e+01   6.7183594e+01
   6.9316406e+01   4.5500000e+01   6.7361328e+01
   6.9138672e+01   4.5500000e+01   6.7183594e+01
   6.9316406e+01   4.5322266e+01   6.7539062e+01
   6.9494141e+01   4.5144531e+01   6.7539062e+01
   6.9316406e+01   4.4966797e+01   6.7539062e+01
   6.9138672e+01   4.5144531e+01   6.7539062e+01
   6.9028584e+01   4.4454814e+01   6.8139912e+01
   6.8960938e+01   4.4611328e+01   6.7894531e+01
   6.8960938e+01   4.4433594e+01   6.7716797e+01
   6.9028584e+01   4.4188213e+01   6.7916908e+01
   6.8605469e+01   4.4789062e+01   6.7716797e+01
   6.8783203e+01   4.4789062e+01   6.7894531e+01
   6.8605469e+01   4.4789062e+01   6.8072266e+01
   6.8427734e+01   4.4789062e+01   6.7894531e+01
   6.8617793e+01   4.4612162e+01   6.8262783e+01
   6.8440059e+01   4.4434428e+01   6.8262783e+01
   6.9604229e+01   4.4590108e+01   6.7649150e+01
   6.9316406e+01   4.4789062e+01   6.7716797e+01
   6.9138672e+01   4.4789062e+01   6.7894531e+01
   6.9120195e+01   4.4678976e+01   6.8182354e+01
   6.9071025e+01   4.4590108e+01   6.8182354e+01
   6.8960938e+01   4.5144531e+01   6.8072266e+01
   6.8960938e+01   4.5322266e+01   6.7894531e+01
   6.8960938e+01   4.5144531e+01   6.7716797e+01
   6.8960938e+01   4.4966797e+01   6.7894531e+01
   6.8605469e+01   4.5500000e+01   6.7716797e+01
   6.8783203e+01   4.5500000e+01   6.7894531e+01
   6.8605469e+01   4.5500000e+01   6.8072266e+01
   6.8427734e+01   4.5500000e+01   6.7894531e+01
   6.8605469e+01   4.5322266e+01   6.8250000e+01
   6.8783203e+01   4.5144531e+01   6.8250000e+01
   6.8605469e+01   4.4966797e+01   6.8250000e+01
   6.8427734e+01   4.5144531e+01   6.8250000e+01
   6.9495029e+01   4.5165482e+01   6.7984287e+01
   6.9549494e+01   4.5288752e+01   6.7989582e+01
   6.9670986e+01   4.5212448e+01   6.7715908e+01
   6.9616521e+01   4.4911443e+01   6.7710613e+01
   6.9316406e+01   4.5500000e+01   6.7716797e+01
   6.9138672e+01   4.5500000e+01   6.7894531e+01
   6.9288187e+01   4.5412022e+01   6.8270951e+01
   6.9406162e+01   4.5165482e+01   6.8073154e+01
   6.9166891e+01   4.4877041e+01   6.8229049e+01
   6.9083318e+01   4.5089178e+01   6.8283514e+01
   7.0205967e+01   4.5165482e+01   6.7273350e+01
   7.0314896e+01   4.5234288e+01   6.7204545e+01
   7.0381924e+01   4.5212448e+01   6.7004971e+01
   7.0027344e+01   4.5500000e+01   6.7005859e+01
   6.9849609e+01   4.5500000e+01   6.7183594e+01
   6.9943771e+01   4.5356669e+01   6.7593527e+01
   7.0117100e+01   4.5165482e+01   6.7362217e+01
   6.9794256e+01   4.5089178e+01   6.7572576e+01
   7.0654709e+01   4.5534403e+01   6.6971457e+01
   7.0526145e+01   4.5534403e+01   6.7100021e+01
   6.9775779e+01   4.4801356e+01   6.7593797e+01
   6.9726609e+01   4.4801356e+01   6.7642967e+01
   6.9919186e+01   4.5509818e+01   6.7657809e+01
   6.9790621e+01   4.5509818e+01   6.7786373e+01
   6.6828125e+01   4.3011719e+01   6.8783203e+01
   6.6828125e+01   4.3189453e+01   6.8605469e+01
   6.6828125e+01   4.3722656e+01   6.8783203e+01
   6.6828125e+01   4.3544922e+01   6.8605469e+01
   6.6650391e+01   4.3722656e+01   6.8960938e+01
   6.6828125e+01   4.3722656e+01   6.9494141e+01
   6.6828125e+01   4.3900391e+01   6.9316406e+01
   6.6828125e+01   4.3722656e+01   6.9138672e+01
   6.6828125e+01   4.3544922e+01   6.9316406e+01
   6.6650391e+01   4.4078125e+01   6.9316406e+01
   6.6472656e+01   4.4078125e+01   6.9494141e+01
   6.7183594e+01   4.3367188e+01   6.8427734e+01
   6.7361328e+01   4.3367188e+01   6.8605469e+01
   6.7183594e+01   4.3367188e+01   6.8783203e+01
   6.7005859e+01   4.3367188e+01   6.8605469e+01
   6.7183594e+01   4.3189453e+01   6.8960938e+01
   6.7373652e+01   4.3012553e+01   6.8973598e+01
   6.7005859e+01   4.3011719e+01   6.8960938e+01
   6.7716797e+01   4.3367188e+01   6.8605469e+01
   6.7751199e+01   4.3243917e+01   6.8955643e+01
   6.7539062e+01   4.3722656e+01   6.8783203e+01
   6.7539062e+01   4.3900391e+01   6.8605469e+01
   6.7539062e+01   4.3722656e+01   6.8427734e+01
   6.7539062e+01   4.3544922e+01   6.8605469e+01
   6.7183594e+01   4.4078125e+01   6.8427734e+01
   6.7361328e+01   4.4078125e+01   6.8605469e+01
   6.7183594e+01   4.4078125e+01   6.8783203e+01
   6.7005859e+01   4.4078125e+01   6.8605469e+01
   6.7183594e+01   4.3900391e+01   6.8960938e+01
   6.7361328e+01   4.3722656e+01   6.8960938e+01
   6.7183594e+01   4.3544922e+01   6.8960938e+01
   6.7005859e+01   4.3722656e+01   6.8960938e+01
   6.8166428e+01   4.3757060e+01   6.8748801e+01
   6.8267437e+01   4.3833784e+01   6.8672076e+01
   6.8283094e+01   4.3800271e+01   6.8460828e+01
   6.7894531e+01   4.4078125e+01   6.8427734e+01
   6.8072266e+01   4.4078125e+01   6.8605469e+01
   6.7894531e+01   4.4078125e+01   6.8783203e+01
   6.7716797e+01   4.4078125e+01   6.8605469e+01
   6.7873311e+01   4.3921610e+01   6.9068281e+01
   6.8037863e+01   4.3757060e+01   6.8877365e+01
   6.7826615e+01   4.3456944e+01   6.8981889e+01
   6.7683283e+01   4.3689143e+01   6.9055988e+01
   6.7288537e+01   4.3022972e+01   6.9372180e+01
   6.7546092e+01   4.3067017e+01   6.9096867e+01
   6.7356215e+01   4.2901425e+01   6.9262459e+01
   6.7183594e+01   4.3367188e+01   6.9138672e+01
   6.7360439e+01   4.3435104e+01   6.9315518e+01
   6.7005859e+01   4.3367188e+01   6.9316406e+01
   6.7239367e+01   4.3022972e+01   6.9421350e+01
   6.7717686e+01   4.3388138e+01   6.9050693e+01
   6.7455490e+01   4.3757060e+01   6.9459738e+01
   6.7701760e+01   4.3799229e+01   6.9172805e+01
   6.7634113e+01   4.3511408e+01   6.9194025e+01
   6.7183594e+01   4.4078125e+01   6.9138672e+01
   6.7361328e+01   4.4078125e+01   6.9316406e+01
   6.7183594e+01   4.4078125e+01   6.9494141e+01
   6.7005859e+01   4.4078125e+01   6.9316406e+01
   6.7162373e+01   4.3921610e+01   6.9650654e+01
   6.7326926e+01   4.3757060e+01   6.9588303e+01
   6.7238059e+01   4.3579325e+01   6.9588303e+01
   6.6972346e+01   4.3689143e+01   6.9638361e+01
   6.6828125e+01   4.4433594e+01   6.9494141e+01
   6.6828125e+01   4.4611328e+01   6.9316406e+01
   6.6828125e+01   4.4433594e+01   6.9138672e+01
   6.6828125e+01   4.4255859e+01   6.9316406e+01
   6.6650391e+01   4.4789062e+01   6.9316406e+01
   6.6472656e+01   4.4789062e+01   6.9494141e+01
   6.6472656e+01   4.4611328e+01   6.9671875e+01
   6.6650391e+01   4.4433594e+01   6.9671875e+01
   6.6472656e+01   4.4255859e+01   6.9671875e+01
   6.6294922e+01   4.4433594e+01   6.9671875e+01
   6.6828125e+01   4.5144531e+01   6.9138672e+01
   6.6828125e+01   4.4966797e+01   6.9316406e+01
   6.7539062e+01   4.4433594e+01   6.8783203e+01
   6.7539062e+01   4.4611328e+01   6.8605469e+01
   6.7539062e+01   4.4433594e+01   6.8427734e+01
   6.7539062e+01   4.4255859e+01   6.8605469e+01
   6.7361328e+01   4.4789062e+01   6.8605469e+01
   6.7183594e+01   4.4789062e+01   6.8783203e+01
   6.7183594e+01   4.4611328e+01   6.8960938e+01
   6.7361328e+01   4.4433594e+01   6.8960938e+01
   6.7183594e+01   4.4255859e+01   6.8960938e+01
   6.7005859e+01   4.4433594e+01   6.8960938e+01
   6.8262324e+01   4.4434428e+01   6.8795986e+01
   6.8262324e+01   4.4612162e+01   6.8618252e+01
   6.8262324e+01   4.4434428e+01   6.8440518e+01
   6.8262324e+01   4.4256693e+01   6.8618252e+01
   6.7894531e+01   4.4789062e+01   6.8427734e+01
   6.8072266e+01   4.4789062e+01   6.8605469e+01
   6.7894531e+01   4.4789062e+01   6.8783203e+01
   6.7716797e+01   4.4789062e+01   6.8605469e+01
   6.7894531e+01   4.4611328e+01   6.8960938e+01
   6.8072266e+01   4.4433594e+01   6.8960938e+01
   6.7894531e+01   4.4255859e+01   6.8960938e+01
   6.7716797e+01   4.4433594e+01   6.8960938e+01
   6.7539062e+01   4.5144531e+01   6.8783203e+01
   6.7539062e+01   4.5322266e+01   6.8605469e+01
   6.7539062e+01   4.5144531e+01   6.8427734e+01
   6.7539062e+01   4.4966797e+01   6.8605469e+01
   6.7361328e+01   4.5500000e+01   6.8605469e+01
   6.7183594e+01   4.5500000e+01   6.8783203e+01
   6.7183594e+01   4.5322266e+01   6.8960938e+01
   6.7361328e+01   4.5144531e+01   6.8960938e+01
   6.7183594e+01   4.4966797e+01   6.8960938e+01
   6.7005859e+01   4.5144531e+01   6.8960938e+01
   6.8250000e+01   4.5144531e+01   6.8783203e+01
   6.8250000e+01   4.5322266e+01   6.8605469e+01
   6.8250000e+01   4.5144531e+01   6.8427734e+01
   6.8250000e+01   4.4966797e+01   6.8605469e+01
   6.7894531e+01   4.5500000e+01   6.8427734e+01
   6.8072266e+01   4.5500000e+01   6.8605469e+01
   6.7894531e+01   4.5500000e+01   6.8783203e+01
   6.7716797e+01   4.5500000e+01   6.8605469e+01
   6.7894531e+01   4.5322266e+01   6.8960938e+01
   6.8072266e+01   4.5144531e+01   6.8960938e+01
   6.7894531e+01   4.4966797e+01   6.8960938e+01
   6.7716797e+01   4.5144531e+01   6.8960938e+01
   6.7539062e+01   4.4433594e+01   6.9494141e+01
   6.7539062e+01   4.4611328e+01   6.9316406e+01
   6.7539062e+01   4.4433594e+01   6.9138672e+01
   6.7539062e+01   4.4255859e+01   6.9316406e+01
   6.7183594e+01   4.4789062e+01   6.9138672e+01
   6.7361328e+01   4.4789062e+01   6.9316406e+01
   6.7183594e+01   4.4789062e+01   6.9494141e+01
   6.7005859e+01   4.4789062e+01   6.9316406e+01
   6.7183594e+01   4.4611328e+01   6.9671875e+01
   6.7361328e+01   4.4433594e+01   6.9671875e+01
   6.7183594e+01   4.4255859e+01   6.9671875e+01
   6.7005859e+01   4.4433594e+01   6.9671875e+01
   6.7985607e+01   4.4436959e+01   6.9362213e+01
   6.8208354e+01   4.4702146e+01   6.9146195e+01
   6.8229037e+01   4.4499826e+01   6.9072439e+01
   6.8049889e+01   4.4323507e+01   6.9248760e+01
   6.7894531e+01   4.4789062e+01   6.9138672e+01
   6.7716797e+01   4.4789062e+01   6.9316406e+01
   6.7724320e+01   4.4702146e+01   6.9630229e+01
   6.7940338e+01   4.4436959e+01   6.9407482e+01
   6.7826885e+01   4.4323507e+01   6.9471764e+01
   6.7650564e+01   4.4499826e+01   6.9650912e+01
   6.7539062e+01   4.5144531e+01   6.9494141e+01
   6.7539062e+01   4.5144531e+01   6.9138672e+01
   6.7539062e+01   4.4966797e+01   6.9316406e+01
   6.8073154e+01   4.5165482e+01   6.9406162e+01
   6.8127619e+01   4.5288752e+01   6.9411457e+01
   6.8249111e+01   4.5212448e+01   6.9137783e+01
   6.8194646e+01   4.4911443e+01   6.9132488e+01
   6.7984287e+01   4.5165482e+01   6.9495029e+01
   6.7745016e+01   4.4877041e+01   6.9650924e+01
   6.6828125e+01   4.4433594e+01   7.0205078e+01
   6.6828125e+01   4.4433594e+01   6.9849609e+01
   6.6828125e+01   4.4255859e+01   7.0027344e+01
   6.7274670e+01   4.4436959e+01   7.0073150e+01
   6.7364951e+01   4.4524411e+01   6.9985697e+01
   6.7472830e+01   4.4499826e+01   6.9783377e+01
   6.7338951e+01   4.4323507e+01   6.9959697e+01
   6.7183594e+01   4.4789062e+01   6.9849609e+01
   6.7229400e+01   4.4436959e+01   7.0118420e+01
   6.7115947e+01   4.4323507e+01   7.0182701e+01
   6.7644381e+01   4.4799941e+01   6.9728023e+01
   6.8905615e+01   4.4679810e+01   6.8422041e+01
   6.8905615e+01   4.4590942e+01   6.8372871e+01
   6.8617793e+01   4.4789896e+01   6.8440518e+01
   6.8440059e+01   4.4789896e+01   6.8618252e+01
   6.8422996e+01   4.4678395e+01   6.8907488e+01
   6.8373826e+01   4.4500660e+01   6.8907488e+01
   6.9064842e+01   4.4801356e+01   6.8304734e+01
   6.8784092e+01   4.5165482e+01   6.8695225e+01
   6.8893021e+01   4.5234288e+01   6.8626420e+01
   6.8960049e+01   4.5212448e+01   6.8426846e+01
   6.8905584e+01   4.4911443e+01   6.8421551e+01
   6.8605469e+01   4.5500000e+01   6.8427734e+01
   6.8427734e+01   4.5500000e+01   6.8605469e+01
   6.8521896e+01   4.5356669e+01   6.9015402e+01
   6.8695225e+01   4.5165482e+01   6.8784092e+01
   6.8372381e+01   4.5089178e+01   6.8994451e+01
   6.9208248e+01   4.5509818e+01   6.8368746e+01
   6.9079684e+01   4.5509818e+01   6.8497311e+01
   6.8355318e+01   4.4799941e+01   6.9017086e+01
   6.8306148e+01   4.4799941e+01   6.9066256e+01
   6.8497311e+01   4.5509818e+01   6.9079684e+01
   6.8368746e+01   4.5509818e+01   6.9208248e+01
   6.8250000e+01   4.5855469e+01   6.8072266e+01
   6.8250000e+01   4.6033203e+01   6.7894531e+01
   6.8250000e+01   4.5855469e+01   6.7716797e+01
   6.8250000e+01   4.5677734e+01   6.7894531e+01
   6.8072266e+01   4.6210938e+01   6.7894531e+01
   6.7894531e+01   4.6033203e+01   6.8250000e+01
   6.8072266e+01   4.5855469e+01   6.8250000e+01
   6.7894531e+01   4.5677734e+01   6.8250000e+01
   6.7716797e+01   4.5855469e+01   6.8250000e+01
   6.8250000e+01   4.6388672e+01   6.7894531e+01
   6.9671875e+01   4.5855469e+01   6.5939453e+01
   6.9671875e+01   4.6033203e+01   6.5761719e+01
   6.9494141e+01   4.5855469e+01   6.6117188e+01
   6.9316406e+01   4.5677734e+01   6.6117188e+01
   6.9671875e+01   4.6566406e+01   6.5939453e+01
   6.8960938e+01   4.5855469e+01   6.6650391e+01
   6.8783203e+01   4.5855469e+01   6.6828125e+01
   6.9671875e+01   4.5855469e+01   6.6650391e+01
   6.9671875e+01   4.6033203e+01   6.6472656e+01
   6.9671875e+01   4.5855469e+01   6.6294922e+01
   6.9671875e+01   4.5677734e+01   6.6472656e+01
   6.9316406e+01   4.6210938e+01   6.6294922e+01
   6.9494141e+01   4.6210938e+01   6.6472656e+01
   6.9316406e+01   4.6210938e+01   6.6650391e+01
   6.9138672e+01   4.6210938e+01   6.6472656e+01
   6.9316406e+01   4.6033203e+01   6.6828125e+01
   6.9494141e+01   4.5855469e+01   6.6828125e+01
   6.9316406e+01   4.5677734e+01   6.6828125e+01
   6.9138672e+01   4.5855469e+01   6.6828125e+01
   6.9671875e+01   4.6566406e+01   6.6650391e+01
   6.9671875e+01   4.6744141e+01   6.6472656e+01
   6.9671875e+01   4.6566406e+01   6.6294922e+01
   6.9671875e+01   4.6388672e+01   6.6472656e+01
   6.9494141e+01   4.6921875e+01   6.6472656e+01
   6.9316406e+01   4.6921875e+01   6.6650391e+01
   6.9316406e+01   4.6744141e+01   6.6828125e+01
   6.9494141e+01   4.6566406e+01   6.6828125e+01
   6.9316406e+01   4.6388672e+01   6.6828125e+01
   6.9138672e+01   4.6566406e+01   6.6828125e+01
   7.0027344e+01   4.6210938e+01   6.5583984e+01
   7.0205078e+01   4.6210938e+01   6.5761719e+01
   7.0027344e+01   4.6210938e+01   6.5939453e+01
   6.9849609e+01   4.6210938e+01   6.5761719e+01
   7.0027344e+01   4.6033203e+01   6.6117188e+01
   7.0205078e+01   4.5855469e+01   6.6117188e+01
   6.9849609e+01   4.5855469e+01   6.6117188e+01
   7.0738281e+01   4.6033203e+01   6.6117188e+01
   7.0560547e+01   4.5855469e+01   6.6117188e+01
   7.0027344e+01   4.6744141e+01   6.6117188e+01
   7.0205078e+01   4.6566406e+01   6.6117188e+01
   7.0027344e+01   4.6388672e+01   6.6117188e+01
   6.9849609e+01   4.6566406e+01   6.6117188e+01
   7.0382812e+01   4.5855469e+01   6.6650391e+01
   7.0382812e+01   4.6033203e+01   6.6472656e+01
   7.0382812e+01   4.5855469e+01   6.6294922e+01
   7.0382812e+01   4.5677734e+01   6.6472656e+01
   7.0027344e+01   4.6210938e+01   6.6294922e+01
   7.0205078e+01   4.6210938e+01   6.6472656e+01
   7.0027344e+01   4.6210938e+01   6.6650391e+01
   6.9849609e+01   4.6210938e+01   6.6472656e+01
   7.0027344e+01   4.6033203e+01   6.6828125e+01
   7.0205078e+01   4.5855469e+01   6.6828125e+01
   7.0027344e+01   4.5677734e+01   6.6828125e+01
   6.9849609e+01   4.5855469e+01   6.6828125e+01
   7.1161396e+01   4.5876689e+01   6.6718037e+01
   7.1093750e+01   4.6033203e+01   6.6472656e+01
   7.0738281e+01   4.6210938e+01   6.6294922e+01
   7.0916016e+01   4.6210938e+01   6.6472656e+01
   7.0738281e+01   4.6210938e+01   6.6650391e+01
   7.0560547e+01   4.6210938e+01   6.6472656e+01
   7.0738281e+01   4.6033203e+01   6.6828125e+01
   7.0983662e+01   4.5876689e+01   6.6895771e+01
   7.0845625e+01   4.5698955e+01   6.6806904e+01
   7.0560547e+01   4.5855469e+01   6.6828125e+01
   7.0382812e+01   4.6566406e+01   6.6650391e+01
   7.0382812e+01   4.6744141e+01   6.6472656e+01
   7.0382812e+01   4.6566406e+01   6.6294922e+01
   7.0382812e+01   4.6388672e+01   6.6472656e+01
   7.0027344e+01   4.6921875e+01   6.6294922e+01
   7.0205078e+01   4.6921875e+01   6.6472656e+01
   7.0027344e+01   4.6921875e+01   6.6650391e+01
   6.9849609e+01   4.6921875e+01   6.6472656e+01
   7.0027344e+01   4.6744141e+01   6.6828125e+01
   7.0205078e+01   4.6566406e+01   6.6828125e+01
   7.0027344e+01   4.6388672e+01   6.6828125e+01
   6.9849609e+01   4.6566406e+01   6.6828125e+01
   7.0738281e+01   4.6744141e+01   6.6828125e+01
   7.0916016e+01   4.6566406e+01   6.6828125e+01
   7.0738281e+01   4.6388672e+01   6.6828125e+01
   7.0560547e+01   4.6566406e+01   6.6828125e+01
   6.9671875e+01   4.7277344e+01   6.6650391e+01
   6.9671875e+01   4.7455078e+01   6.6472656e+01
   6.9671875e+01   4.7277344e+01   6.6294922e+01
   6.9671875e+01   4.7099609e+01   6.6472656e+01
   6.9316406e+01   4.7455078e+01   6.6828125e+01
   6.9494141e+01   4.7277344e+01   6.6828125e+01
   6.9316406e+01   4.7099609e+01   6.6828125e+01
   7.0027344e+01   4.7455078e+01   6.6828125e+01
   7.0205078e+01   4.7277344e+01   6.6828125e+01
   7.0027344e+01   4.7099609e+01   6.6828125e+01
   6.9849609e+01   4.7277344e+01   6.6828125e+01
   6.8960938e+01   4.5855469e+01   6.7361328e+01
   6.8960938e+01   4.6033203e+01   6.7183594e+01
   6.8960938e+01   4.5855469e+01   6.7005859e+01
   6.8960938e+01   4.5677734e+01   6.7183594e+01
   6.8783203e+01   4.6210938e+01   6.7183594e+01
   6.8605469e+01   4.6210938e+01   6.7361328e+01
   6.8605469e+01   4.6033203e+01   6.7539062e+01
   6.8783203e+01   4.5855469e+01   6.7539062e+01
   6.8605469e+01   4.5677734e+01   6.7539062e+01
   6.8427734e+01   4.5855469e+01   6.7539062e+01
   6.9671875e+01   4.5855469e+01   6.7361328e+01
   6.9671875e+01   4.6033203e+01   6.7183594e+01
   6.9671875e+01   4.5855469e+01   6.7005859e+01
   6.9671875e+01   4.5677734e+01   6.7183594e+01
   6.9316406e+01   4.6210938e+01   6.7005859e+01
   6.9494141e+01   4.6210938e+01   6.7183594e+01
   6.9316406e+01   4.6210938e+01   6.7361328e+01
   6.9138672e+01   4.6210938e+01   6.7183594e+01
   6.9316406e+01   4.6033203e+01   6.7539062e+01
   6.9494141e+01   4.5855469e+01   6.7539062e+01
   6.9316406e+01   4.5677734e+01   6.7539062e+01
   6.9138672e+01   4.5855469e+01   6.7539062e+01
   6.8960938e+01   4.6566406e+01   6.7361328e+01
   6.8960938e+01   4.6744141e+01   6.7183594e+01
   6.8960938e+01   4.6566406e+01   6.7005859e+01
   6.8960938e+01   4.6388672e+01   6.7183594e+01
   6.8783203e+01   4.6921875e+01   6.7183594e+01
   6.8605469e+01   4.6744141e+01   6.7539062e+01
   6.8783203e+01   4.6566406e+01   6.7539062e+01
   6.8605469e+01   4.6388672e+01   6.7539062e+01
   6.8427734e+01   4.6566406e+01   6.7539062e+01
   6.9671875e+01   4.6566406e+01   6.7361328e+01
   6.9671875e+01   4.6744141e+01   6.7183594e+01
   6.9671875e+01   4.6566406e+01   6.7005859e+01
   6.9671875e+01   4.6388672e+01   6.7183594e+01
   6.9316406e+01   4.6921875e+01   6.7005859e+01
   6.9494141e+01   4.6921875e+01   6.7183594e+01
   6.9316406e+01   4.6921875e+01   6.7361328e+01
   6.9138672e+01   4.6921875e+01   6.7183594e+01
   6.9316406e+01   4.6744141e+01   6.7539062e+01
   6.9494141e+01   4.6566406e+01   6.7539062e+01
   6.9316406e+01   4.6388672e+01   6.7539062e+01
   6.9138672e+01   4.6566406e+01   6.7539062e+01
   6.8960938e+01   4.5855469e+01   6.8072266e+01
   6.8960938e+01   4.6033203e+01   6.7894531e+01
   6.8960938e+01   4.5855469e+01   6.7716797e+01
   6.8960938e+01   4.5677734e+01   6.7894531e+01
   6.8605469e+01   4.6210938e+01   6.7716797e+01
   6.8783203e+01   4.6210938e+01   6.7894531e+01
   6.8605469e+01   4.6210938e+01   6.8072266e+01
   6.8427734e+01   4.6210938e+01   6.7894531e+01
   6.8605469e+01   4.6033203e+01   6.8250000e+01
   6.8783203e+01   4.5855469e+01   6.8250000e+01
   6.8605469e+01   4.5677734e+01   6.8250000e+01
   6.8427734e+01   4.5855469e+01   6.8250000e+01
   6.9603971e+01   4.5878104e+01   6.8049631e+01
   6.9847400e+01   4.5940972e+01   6.7759857e+01
   6.9647289e+01   4.5653149e+01   6.7820775e+01
   6.9316406e+01   4.6210938e+01   6.7716797e+01
   6.9494141e+01   4.6210938e+01   6.7894531e+01
   6.9316406e+01   4.6210938e+01   6.8072266e+01
   6.9138672e+01   4.6210938e+01   6.7894531e+01
   6.9295186e+01   4.6054424e+01   6.8361244e+01
   6.9471506e+01   4.5878104e+01   6.8182096e+01
   6.9422336e+01   4.5700369e+01   6.8182096e+01
   6.9114086e+01   4.5830884e+01   6.8225414e+01
   6.8960938e+01   4.6566406e+01   6.7716797e+01
   6.8960938e+01   4.6388672e+01   6.7894531e+01
   6.9671875e+01   4.6566406e+01   6.8072266e+01
   6.9671875e+01   4.6744141e+01   6.7894531e+01
   6.9671875e+01   4.6566406e+01   6.7716797e+01
   6.9671875e+01   4.6388672e+01   6.7894531e+01
   6.9316406e+01   4.6388672e+01   6.8250000e+01
   7.0373336e+01   4.5878563e+01   6.7351393e+01
   7.0395596e+01   4.6034037e+01   6.7195918e+01
   7.0382812e+01   4.5855469e+01   6.7005859e+01
   7.0382812e+01   4.5677734e+01   6.7134424e+01
   7.0027344e+01   4.6210938e+01   6.7005859e+01
   7.0217861e+01   4.6211771e+01   6.7195918e+01
   7.0040127e+01   4.6211771e+01   6.7373652e+01
   6.9849609e+01   4.6210938e+01   6.7183594e+01
   7.0018906e+01   4.6055258e+01   6.7663379e+01
   7.0195602e+01   4.5878563e+01   6.7484605e+01
   7.0133648e+01   4.5699995e+01   6.7472281e+01
   6.9825023e+01   4.5830884e+01   6.7514477e+01
   7.1026104e+01   4.6011983e+01   6.6938213e+01
   7.0738281e+01   4.6210938e+01   6.7005859e+01
   7.0573330e+01   4.6211771e+01   6.7195918e+01
   7.0395596e+01   4.6567240e+01   6.7373652e+01
   7.0382812e+01   4.6744141e+01   6.7183594e+01
   7.0382812e+01   4.6566406e+01   6.7005859e+01
   7.0395596e+01   4.6389506e+01   6.7195918e+01
   7.0027344e+01   4.6921875e+01   6.7005859e+01
   7.0205078e+01   4.6921875e+01   6.7183594e+01
   7.0027344e+01   4.6921875e+01   6.7361328e+01
   6.9849609e+01   4.6921875e+01   6.7183594e+01
   7.0027344e+01   4.6744141e+01   6.7539062e+01
   7.0217861e+01   4.6567240e+01   6.7551387e+01
   7.0040127e+01   4.6389506e+01   6.7551387e+01
   6.9849609e+01   4.6566406e+01   6.7539062e+01
   7.0843600e+01   4.6577285e+01   6.7239742e+01
   7.0909832e+01   4.6688787e+01   6.7217107e+01
   7.1063871e+01   4.6645456e+01   6.6975980e+01
   7.1029469e+01   4.6324390e+01   6.6986848e+01
   7.0738281e+01   4.6921875e+01   6.7005859e+01
   7.0560547e+01   4.6921875e+01   6.7183594e+01
   7.0624977e+01   4.6833236e+01   6.7516994e+01
   7.0794430e+01   4.6577285e+01   6.7288912e+01
   7.0684832e+01   4.6455738e+01   6.7356590e+01
   7.0573330e+01   4.6567240e+01   6.7422822e+01
   7.0150215e+01   4.6368285e+01   6.7839209e+01
   7.0122918e+01   4.6570368e+01   6.7940936e+01
   7.0389184e+01   4.6622822e+01   6.7673539e+01
   7.0199385e+01   4.6457152e+01   6.7839209e+01
   7.0027344e+01   4.6921875e+01   6.7716797e+01
   7.0073748e+01   4.6570368e+01   6.7986205e+01
   6.9959697e+01   4.6456318e+01   6.8049889e+01
   6.9872244e+01   4.6543771e+01   6.8140170e+01
   7.0556828e+01   4.6942822e+01   6.7626580e+01
   7.0470330e+01   4.6942822e+01   6.7694545e+01
   6.8960938e+01   4.7099609e+01   6.7183594e+01
   6.9671875e+01   4.7277344e+01   6.7005859e+01
   6.9671875e+01   4.7099609e+01   6.7183594e+01
   7.0382812e+01   4.7277344e+01   6.7361328e+01
   7.0382812e+01   4.7455078e+01   6.7183594e+01
   7.0382812e+01   4.7277344e+01   6.7005859e+01
   7.0382812e+01   4.7099609e+01   6.7183594e+01
   7.0027344e+01   4.7099609e+01   6.7539062e+01
   7.0857027e+01   4.7287161e+01   6.7430904e+01
   7.0666875e+01   4.7010510e+01   6.7558893e+01
   7.0525912e+01   4.7242709e+01   6.7632992e+01
   7.0348178e+01   4.7064975e+01   6.7750127e+01
   7.1249107e+01   4.6100851e+01   6.6760479e+01
   7.1203838e+01   4.6011983e+01   6.6760479e+01
   7.1184826e+01   4.6214303e+01   6.6873932e+01
   7.1139557e+01   4.6214303e+01   6.6919201e+01
   6.7539062e+01   4.5855469e+01   6.8427734e+01
   6.7539062e+01   4.5677734e+01   6.8605469e+01
   6.8250000e+01   4.5855469e+01   6.8427734e+01
   6.8250000e+01   4.5677734e+01   6.8605469e+01
   6.8893033e+01   4.5878104e+01   6.8760568e+01
   6.9136463e+01   4.5940972e+01   6.8470795e+01
   6.8936352e+01   4.5653149e+01   6.8531713e+01
   6.8760568e+01   4.5878104e+01   6.8893033e+01
   6.8711398e+01   4.5700369e+01   6.8893033e+01
   7.0744465e+01   4.5555354e+01   6.6705744e+01
   7.0900979e+01   4.5576574e+01   6.6684523e+01
   6.8560947e+01   4.4078125e+01   6.8072266e+01
   6.8781742e+01   4.4163628e+01   6.8115326e+01
   6.8714096e+01   4.4053540e+01   6.8047680e+01
   6.8627555e+01   4.3833784e+01   6.8267437e+01
   6.8460828e+01   4.3800271e+01   6.8283094e+01
   6.8939717e+01   4.4454814e+01   6.8051045e+01
   6.8939717e+01   4.4277080e+01   6.7873311e+01
   6.8863174e+01   4.4455648e+01   6.8330430e+01
   6.8774307e+01   4.4455648e+01   6.8241563e+01
   6.8573271e+01   4.4256693e+01   6.8262783e+01
   6.8729785e+01   4.4277914e+01   6.8241563e+01
   6.9604229e+01   4.4678976e+01   6.7698320e+01
   6.9439676e+01   4.4843527e+01   6.7889236e+01
   6.9494141e+01   4.4789062e+01   6.7765967e+01
   6.9222244e+01   4.4754660e+01   6.8106668e+01
   6.9261941e+01   4.4843527e+01   6.8017801e+01
   6.9637473e+01   4.5267802e+01   6.7899826e+01
   6.9637473e+01   4.5356669e+01   6.7810959e+01
   6.9616521e+01   4.5089178e+01   6.7661443e+01
   6.9670986e+01   4.5123581e+01   6.7804775e+01
   6.9616521e+01   4.5000311e+01   6.7799480e+01
   6.9528543e+01   4.5021262e+01   6.7889236e+01
   6.9526859e+01   4.5577988e+01   6.8055814e+01
   6.9460627e+01   4.5466486e+01   6.7989582e+01
   6.9494141e+01   4.5500000e+01   6.7845361e+01
   6.9322590e+01   4.5555354e+01   6.8127619e+01
   6.9282893e+01   4.5466486e+01   6.8038752e+01
   6.9477689e+01   4.5577988e+01   6.8104984e+01
   6.9248490e+01   4.5323155e+01   6.8270951e+01
   6.9282893e+01   4.5288752e+01   6.8127619e+01
   6.9206588e+01   4.4965908e+01   6.8229049e+01
   6.9261941e+01   4.5021262e+01   6.8106668e+01
   6.9138672e+01   4.5144531e+01   6.8161133e+01
   6.9137783e+01   4.5212448e+01   6.8337979e+01
   6.9985539e+01   4.4844361e+01   6.7319187e+01
   7.0314896e+01   4.5323155e+01   6.7244242e+01
   7.0348410e+01   4.5356669e+01   6.7100021e+01
   7.0381924e+01   4.5123581e+01   6.7093838e+01
   7.0272994e+01   4.5054775e+01   6.7162643e+01
   7.0238172e+01   4.5577614e+01   6.7345252e+01
   7.0171564e+01   4.5466486e+01   6.7278645e+01
   7.0205078e+01   4.5500000e+01   6.7134424e+01
   7.0033527e+01   4.5555354e+01   6.7416682e+01
   6.9993830e+01   4.5466486e+01   6.7327814e+01
   7.0189002e+01   4.5577614e+01   6.7394422e+01
   7.0033527e+01   4.5377619e+01   6.7505549e+01
   6.9993830e+01   4.5288752e+01   6.7416682e+01
   6.9843426e+01   4.4911443e+01   6.7572576e+01
   6.9933182e+01   4.4932395e+01   6.7484598e+01
   6.9972879e+01   4.5021262e+01   6.7395730e+01
   6.9849609e+01   4.5144531e+01   6.7450195e+01
   6.9848721e+01   4.5212448e+01   6.7627041e+01
   6.8071377e+01   4.3435104e+01   6.8693447e+01
   6.7893643e+01   4.3346237e+01   6.8871182e+01
   6.7893643e+01   4.3435104e+01   6.8782314e+01
   6.7839178e+01   4.3311834e+01   6.8727850e+01
   6.7839178e+01   4.3222967e+01   6.8865887e+01
   6.7674656e+01   4.3067017e+01   6.8968303e+01
   6.8227740e+01   4.3922651e+01   6.8583209e+01
   6.8216486e+01   4.3689143e+01   6.8394221e+01
   6.8322791e+01   4.3711403e+01   6.8549695e+01
   6.8182084e+01   4.3545812e+01   6.8626420e+01
   6.8221781e+01   4.3634679e+01   6.8626420e+01
   6.7894531e+01   4.3900391e+01   6.8911768e+01
   6.7826615e+01   4.3545812e+01   6.9021586e+01
   6.7860129e+01   4.3579325e+01   6.8877365e+01
   6.7716797e+01   4.3722656e+01   6.8911768e+01
   6.7750930e+01   4.3799229e+01   6.9123635e+01
   6.7533768e+01   4.3243917e+01   6.9173074e+01
   6.7444012e+01   4.3222967e+01   6.9261053e+01
   6.7355145e+01   4.3134100e+01   6.9261053e+01
   6.7422822e+01   4.3012553e+01   6.9151332e+01
   6.7305975e+01   4.3311834e+01   6.9261053e+01
   6.7449307e+01   4.3346237e+01   6.9315518e+01
   6.7128240e+01   4.3400701e+01   6.9527654e+01
   6.7128240e+01   4.3311834e+01   6.9438787e+01
   6.7271572e+01   4.3435104e+01   6.9493252e+01
   6.7628818e+01   4.3388138e+01   6.9139561e+01
   6.7646406e+01   4.3921610e+01   6.9295186e+01
   6.7489893e+01   4.3900391e+01   6.9316406e+01
   6.7634113e+01   4.3689143e+01   6.9105158e+01
   6.7489893e+01   4.3722656e+01   6.9138672e+01
   6.7544357e+01   4.3490458e+01   6.9282004e+01
   6.7455490e+01   4.3579325e+01   6.9282004e+01
   6.7251240e+01   4.3832743e+01   6.9690352e+01
   6.7150080e+01   4.3600275e+01   6.9678059e+01
   6.7061213e+01   4.3511408e+01   6.9638361e+01
   6.7128859e+01   4.3710362e+01   6.9745705e+01
   6.7039992e+01   4.3799229e+01   6.9706008e+01
   6.7873311e+01   4.4099345e+01   6.9117451e+01
   6.7962178e+01   4.4099345e+01   6.9206318e+01
   6.8004619e+01   4.4234640e+01   6.9248760e+01
   6.7826885e+01   4.4234640e+01   6.9426494e+01
   6.7695576e+01   4.4099345e+01   6.9295186e+01
   6.7784443e+01   4.4099345e+01   6.9384053e+01
   6.8164756e+01   4.4613278e+01   6.9185893e+01
   6.8053254e+01   4.4547046e+01   6.9252125e+01
   6.8117535e+01   4.4433594e+01   6.9138672e+01
   6.8042387e+01   4.4868112e+01   6.9335697e+01
   6.8096852e+01   4.4813647e+01   6.9212428e+01
   6.8007984e+01   4.4724780e+01   6.9252125e+01
   6.7824955e+01   4.4779245e+01   6.9553129e+01
   6.7864652e+01   4.4868112e+01   6.9464262e+01
   6.7830250e+01   4.4724780e+01   6.9429859e+01
   6.7764018e+01   4.4613278e+01   6.9586631e+01
   6.7830250e+01   4.4547046e+01   6.9475129e+01
   6.7716797e+01   4.4433594e+01   6.9539410e+01
   6.8215598e+01   4.5267802e+01   6.9321701e+01
   6.8215598e+01   4.5356669e+01   6.9232834e+01
   6.8194646e+01   4.5089178e+01   6.9083318e+01
   6.8249111e+01   4.5123581e+01   6.9226650e+01
   6.8194646e+01   4.5000311e+01   6.9221355e+01
   6.8106668e+01   4.5021262e+01   6.9311111e+01
   6.7784713e+01   4.4965908e+01   6.9650924e+01
   6.7840066e+01   4.5021262e+01   6.9528543e+01
   6.7162373e+01   4.4099345e+01   6.9828389e+01
   6.7251240e+01   4.4099345e+01   6.9917256e+01
   6.7293682e+01   4.4234640e+01   6.9959697e+01
   6.7115947e+01   4.4234640e+01   7.0137432e+01
   6.6984639e+01   4.4099345e+01   7.0006123e+01
   6.7073506e+01   4.4099345e+01   7.0094990e+01
   6.7408549e+01   4.4613278e+01   6.9946000e+01
   6.7472830e+01   4.4677561e+01   6.9832547e+01
   6.7429232e+01   4.4410959e+01   6.9872244e+01
   6.7361328e+01   4.4789062e+01   6.9898779e+01
   6.7119313e+01   4.4547046e+01   7.0186066e+01
   6.7005859e+01   4.4433594e+01   7.0250348e+01
   6.7595211e+01   4.4799941e+01   6.9777193e+01
   6.8551012e+01   4.4101220e+01   6.8418258e+01
   6.8417799e+01   4.4101220e+01   6.8595992e+01
   6.8741062e+01   4.4844361e+01   6.8612957e+01
   6.8795527e+01   4.4789896e+01   6.8489688e+01
   6.8523631e+01   4.4755494e+01   6.8830389e+01
   6.8563328e+01   4.4844361e+01   6.8741521e+01
   6.9015672e+01   4.4801356e+01   6.8353904e+01
   6.8893021e+01   4.5323155e+01   6.8666117e+01
   6.8926535e+01   4.5356669e+01   6.8521896e+01
   6.8905584e+01   4.5089178e+01   6.8372381e+01
   6.8960049e+01   4.5123581e+01   6.8515713e+01
   6.8851119e+01   4.4965908e+01   6.8544820e+01
   6.8851119e+01   4.5054775e+01   6.8584518e+01
   6.8815922e+01   4.5577988e+01   6.8766752e+01
   6.8749689e+01   4.5466486e+01   6.8700520e+01
   6.8783203e+01   4.5500000e+01   6.8556299e+01
   6.8611652e+01   4.5555354e+01   6.8838557e+01
   6.8571955e+01   4.5466486e+01   6.8749689e+01
   6.8766752e+01   4.5577988e+01   6.8815922e+01
   6.8611652e+01   4.5377619e+01   6.8927424e+01
   6.8571955e+01   4.5288752e+01   6.8838557e+01
   6.8421551e+01   4.4911443e+01   6.8994451e+01
   6.8511307e+01   4.4932395e+01   6.8906473e+01
   6.8551004e+01   4.5021262e+01   6.8817605e+01
   6.8427734e+01   4.5144531e+01   6.8872070e+01
   6.8426846e+01   4.5212448e+01   6.9048916e+01
   7.1072529e+01   4.5876689e+01   6.6629170e+01
   7.1072529e+01   4.5698955e+01   6.6580000e+01
   7.0894795e+01   4.5876689e+01   6.6806904e+01
   7.0689111e+01   4.5677734e+01   6.6828125e+01
   6.9783119e+01   4.6054424e+01   6.7873311e+01
   6.9626605e+01   4.6033203e+01   6.7894531e+01
   6.9690887e+01   4.5919751e+01   6.7781078e+01
   6.9647289e+01   4.5830884e+01   6.7692211e+01
   6.9690887e+01   4.5742017e+01   6.7909643e+01
   6.9603971e+01   4.5700369e+01   6.8000461e+01
   6.9316406e+01   4.6033203e+01   6.8204730e+01
   6.9331518e+01   4.5742017e+01   6.8269012e+01
   6.9242650e+01   4.5653149e+01   6.8225414e+01
   6.9181732e+01   4.5940972e+01   6.8425525e+01
   6.9202953e+01   4.5919751e+01   6.8269012e+01
   7.0360553e+01   4.5699995e+01   6.7289898e+01
   7.0040127e+01   4.6034037e+01   6.7506865e+01
   7.0042455e+01   4.5742017e+01   6.7558822e+01
   6.9953588e+01   4.5653149e+01   6.7514477e+01
   6.9892670e+01   4.5940972e+01   6.7715336e+01
   6.9913891e+01   4.5919751e+01   6.7558822e+01
   7.1026104e+01   4.6100851e+01   6.6983482e+01
   7.0849783e+01   4.6277170e+01   6.7162631e+01
   7.0916016e+01   4.6210938e+01   6.7051129e+01
   7.0684832e+01   4.6278004e+01   6.7307420e+01
   7.0999588e+01   4.6709738e+01   6.7129129e+01
   7.1039285e+01   4.6798605e+01   6.7040262e+01
   7.1029469e+01   4.6502124e+01   6.6941578e+01
   7.1024174e+01   4.6556589e+01   6.7064848e+01
   7.0989771e+01   4.6413257e+01   6.7075715e+01
   7.0898953e+01   4.6454904e+01   6.7162631e+01
   7.0915127e+01   4.6989791e+01   6.7271572e+01
   7.0860662e+01   4.6866521e+01   6.7217107e+01
   7.0916016e+01   4.6921875e+01   6.7094727e+01
   7.0735023e+01   4.6900924e+01   6.7449307e+01
   7.0737393e+01   4.6989791e+01   6.7360439e+01
   7.0682928e+01   4.6866521e+01   6.7305975e+01
   7.0627346e+01   4.6744369e+01   6.7477297e+01
   7.0682928e+01   4.6688787e+01   6.7355145e+01
   7.0517748e+01   4.6622822e+01   6.7544975e+01
   7.0018906e+01   4.6232992e+01   6.7707900e+01
   7.0107773e+01   4.6232992e+01   6.7796768e+01
   6.9959697e+01   4.6367451e+01   6.8004619e+01
   6.9828389e+01   4.6232158e+01   6.7873311e+01
   6.9917256e+01   4.6232158e+01   6.7962178e+01
   7.0376400e+01   4.6799723e+01   6.7729180e+01
   7.0279432e+01   4.6769323e+01   6.7809945e+01
   7.0190564e+01   4.6680456e+01   6.7830848e+01
   7.0267031e+01   4.6567240e+01   6.7729121e+01
   7.0230262e+01   4.6947058e+01   6.7809945e+01
   7.0141395e+01   4.6858190e+01   6.7830848e+01
   7.0014025e+01   4.6858190e+01   6.8008582e+01
   6.9922609e+01   4.6721506e+01   6.8140170e+01
   7.0014025e+01   4.6680456e+01   6.8053852e+01
   6.9783377e+01   4.6632639e+01   6.8183768e+01
   7.0713695e+01   4.7430493e+01   6.7465307e+01
   7.0669244e+01   4.7099377e+01   6.7598590e+01
   7.0703879e+01   4.7134012e+01   6.7455490e+01
   7.0560547e+01   4.7277344e+01   6.7489893e+01
   7.1252473e+01   4.6324390e+01   6.6763844e+01
   6.9072182e+01   4.6054424e+01   6.8584248e+01
   6.8915668e+01   4.6033203e+01   6.8605469e+01
   6.8979949e+01   4.5919751e+01   6.8492016e+01
   6.8936352e+01   4.5830884e+01   6.8403148e+01
   6.8979949e+01   4.5742017e+01   6.8620580e+01
   6.8893033e+01   4.5700369e+01   6.8711398e+01
   6.8620580e+01   4.5742017e+01   6.8979949e+01
   6.8531713e+01   4.5653149e+01   6.8936352e+01
   6.9384053e+01   4.6232158e+01   6.8495381e+01
   6.9295186e+01   4.6232158e+01   6.8406514e+01
