   6.6117188e+01   5.5986328e+01   6.9316406e+01
   6.6117188e+01   5.5808594e+01   6.9138672e+01
   6.6117188e+01   5.5630859e+01   6.9316406e+01
   6.5939453e+01   5.6164062e+01   6.9316406e+01
   6.5761719e+01   5.6164062e+01   6.9494141e+01
   6.5583984e+01   5.6164062e+01   6.9316406e+01
   6.5761719e+01   5.5986328e+01   6.9671875e+01
   6.5939453e+01   5.5808594e+01   6.9671875e+01
   6.5761719e+01   5.5630859e+01   6.9671875e+01
   6.5583984e+01   5.5808594e+01   6.9671875e+01
   6.6472656e+01   5.6164062e+01   6.9138672e+01
   6.6472656e+01   5.6164062e+01   6.9494141e+01
   6.6294922e+01   5.6164062e+01   6.9316406e+01
   6.6472656e+01   5.5986328e+01   6.9671875e+01
   6.6472656e+01   5.5630859e+01   6.9671875e+01
   6.6294922e+01   5.5808594e+01   6.9671875e+01
   6.6117188e+01   5.6519531e+01   6.9494141e+01
   6.6117188e+01   5.6697266e+01   6.9316406e+01
   6.6117188e+01   5.6519531e+01   6.9138672e+01
   6.6117188e+01   5.6341797e+01   6.9316406e+01
   6.5939453e+01   5.6875000e+01   6.9316406e+01
   6.5761719e+01   5.6875000e+01   6.9494141e+01
   6.5583984e+01   5.6875000e+01   6.9316406e+01
   6.5761719e+01   5.6697266e+01   6.9671875e+01
   6.5939453e+01   5.6519531e+01   6.9671875e+01
   6.5761719e+01   5.6341797e+01   6.9671875e+01
   6.5583984e+01   5.6519531e+01   6.9671875e+01
   6.6294922e+01   5.6875000e+01   6.9316406e+01
   6.6472656e+01   5.6697266e+01   6.9671875e+01
   6.6472656e+01   5.6341797e+01   6.9671875e+01
   6.6294922e+01   5.6519531e+01   6.9671875e+01
   6.6117188e+01   5.4386719e+01   7.0205078e+01
   6.6117188e+01   5.4564453e+01   7.0027344e+01
   6.6117188e+01   5.4386719e+01   6.9849609e+01
   6.6117188e+01   5.4208984e+01   7.0027344e+01
   6.5761719e+01   5.4742188e+01   6.9849609e+01
   6.5939453e+01   5.4742188e+01   7.0027344e+01
   6.5761719e+01   5.4742188e+01   7.0205078e+01
   6.5583984e+01   5.4742188e+01   7.0027344e+01
   6.5761719e+01   5.4564453e+01   7.0382812e+01
   6.5939453e+01   5.4386719e+01   7.0382812e+01
   6.5761719e+01   5.4208984e+01   7.0382812e+01
   6.5583984e+01   5.4386719e+01   7.0382812e+01
   6.6828125e+01   5.4386719e+01   7.0205078e+01
   6.6828125e+01   5.4208984e+01   7.0027344e+01
   6.6472656e+01   5.4742188e+01   6.9849609e+01
   6.6650391e+01   5.4742188e+01   7.0027344e+01
   6.6472656e+01   5.4742188e+01   7.0205078e+01
   6.6294922e+01   5.4742188e+01   7.0027344e+01
   6.6472656e+01   5.4564453e+01   7.0382812e+01
   6.6650391e+01   5.4386719e+01   7.0382812e+01
   6.6472656e+01   5.4208984e+01   7.0382812e+01
   6.6294922e+01   5.4386719e+01   7.0382812e+01
   6.6117188e+01   5.5097656e+01   7.0205078e+01
   6.6117188e+01   5.5275391e+01   7.0027344e+01
   6.6117188e+01   5.5097656e+01   6.9849609e+01
   6.6117188e+01   5.4919922e+01   7.0027344e+01
   6.5761719e+01   5.5453125e+01   6.9849609e+01
   6.5939453e+01   5.5453125e+01   7.0027344e+01
   6.5761719e+01   5.5453125e+01   7.0205078e+01
   6.5583984e+01   5.5453125e+01   7.0027344e+01
   6.5761719e+01   5.5275391e+01   7.0382812e+01
   6.5939453e+01   5.5097656e+01   7.0382812e+01
   6.5761719e+01   5.4919922e+01   7.0382812e+01
   6.5583984e+01   5.5097656e+01   7.0382812e+01
   6.6472656e+01   5.5453125e+01   6.9849609e+01
   6.6650391e+01   5.5453125e+01   7.0027344e+01
   6.6472656e+01   5.5453125e+01   7.0205078e+01
   6.6294922e+01   5.5453125e+01   7.0027344e+01
   6.6472656e+01   5.5275391e+01   7.0382812e+01
   6.6650391e+01   5.5097656e+01   7.0382812e+01
   6.6472656e+01   5.4919922e+01   7.0382812e+01
   6.6294922e+01   5.5097656e+01   7.0382812e+01
   6.6117188e+01   5.4386719e+01   7.0916016e+01
   6.6117188e+01   5.4564453e+01   7.0738281e+01
   6.6117188e+01   5.4386719e+01   7.0560547e+01
   6.6117188e+01   5.4208984e+01   7.0738281e+01
   6.5761719e+01   5.4742188e+01   7.0560547e+01
   6.5939453e+01   5.4742188e+01   7.0738281e+01
   6.5761719e+01   5.4742188e+01   7.0916016e+01
   6.5583984e+01   5.4742188e+01   7.0738281e+01
   6.5761719e+01   5.4564453e+01   7.1093750e+01
   6.5939453e+01   5.4386719e+01   7.1093750e+01
   6.5761719e+01   5.4208984e+01   7.1093750e+01
   6.5583984e+01   5.4386719e+01   7.1093750e+01
   6.6828125e+01   5.4386719e+01   7.0916016e+01
   6.6828125e+01   5.4564453e+01   7.0738281e+01
   6.6828125e+01   5.4386719e+01   7.0560547e+01
   6.6828125e+01   5.4208984e+01   7.0738281e+01
   6.6472656e+01   5.4742188e+01   7.0560547e+01
   6.6650391e+01   5.4742188e+01   7.0738281e+01
   6.6472656e+01   5.4742188e+01   7.0916016e+01
   6.6294922e+01   5.4742188e+01   7.0738281e+01
   6.6117188e+01   5.5097656e+01   7.0916016e+01
   6.6117188e+01   5.5275391e+01   7.0738281e+01
   6.6117188e+01   5.5097656e+01   7.0560547e+01
   6.6117188e+01   5.4919922e+01   7.0738281e+01
   6.5761719e+01   5.5453125e+01   7.0560547e+01
   6.5939453e+01   5.5453125e+01   7.0738281e+01
   6.5761719e+01   5.5453125e+01   7.0916016e+01
   6.5583984e+01   5.5453125e+01   7.0738281e+01
   6.5761719e+01   5.5275391e+01   7.1093750e+01
   6.5939453e+01   5.5097656e+01   7.1093750e+01
   6.5761719e+01   5.4919922e+01   7.1093750e+01
   6.5583984e+01   5.5097656e+01   7.1093750e+01
   6.6828125e+01   5.5097656e+01   7.0916016e+01
   6.6828125e+01   5.4919922e+01   7.0738281e+01
   6.6472656e+01   5.5453125e+01   7.0560547e+01
   6.6650391e+01   5.5453125e+01   7.0738281e+01
   6.6472656e+01   5.5453125e+01   7.0916016e+01
   6.6294922e+01   5.5453125e+01   7.0738281e+01
   6.6294922e+01   5.5097656e+01   7.1093750e+01
   6.6117188e+01   5.5808594e+01   7.0205078e+01
   6.6117188e+01   5.5986328e+01   7.0027344e+01
   6.6117188e+01   5.5808594e+01   6.9849609e+01
   6.6117188e+01   5.5630859e+01   7.0027344e+01
   6.5761719e+01   5.6164062e+01   6.9849609e+01
   6.5939453e+01   5.6164062e+01   7.0027344e+01
   6.5761719e+01   5.6164062e+01   7.0205078e+01
   6.5583984e+01   5.6164062e+01   7.0027344e+01
   6.5761719e+01   5.5986328e+01   7.0382812e+01
   6.5939453e+01   5.5808594e+01   7.0382812e+01
   6.5761719e+01   5.5630859e+01   7.0382812e+01
   6.5583984e+01   5.5808594e+01   7.0382812e+01
   6.6472656e+01   5.6164062e+01   6.9849609e+01
   6.6472656e+01   5.6164062e+01   7.0205078e+01
   6.6294922e+01   5.6164062e+01   7.0027344e+01
   6.6472656e+01   5.5986328e+01   7.0382812e+01
   6.6650391e+01   5.5808594e+01   7.0382812e+01
   6.6472656e+01   5.5630859e+01   7.0382812e+01
   6.6294922e+01   5.5808594e+01   7.0382812e+01
   6.6117188e+01   5.6519531e+01   7.0205078e+01
   6.6117188e+01   5.6697266e+01   7.0027344e+01
   6.6117188e+01   5.6519531e+01   6.9849609e+01
   6.6117188e+01   5.6341797e+01   7.0027344e+01
   6.5761719e+01   5.6875000e+01   6.9849609e+01
   6.5939453e+01   5.6875000e+01   7.0027344e+01
   6.5761719e+01   5.6875000e+01   7.0205078e+01
   6.5583984e+01   5.6875000e+01   7.0027344e+01
   6.5761719e+01   5.6697266e+01   7.0382812e+01
   6.5939453e+01   5.6519531e+01   7.0382812e+01
   6.5761719e+01   5.6341797e+01   7.0382812e+01
   6.5583984e+01   5.6519531e+01   7.0382812e+01
   6.6472656e+01   5.6875000e+01   6.9849609e+01
   6.6472656e+01   5.6875000e+01   7.0205078e+01
   6.6294922e+01   5.6875000e+01   7.0027344e+01
   6.6472656e+01   5.6697266e+01   7.0382812e+01
   6.6472656e+01   5.6341797e+01   7.0382812e+01
   6.6294922e+01   5.6519531e+01   7.0382812e+01
   6.6117188e+01   5.5808594e+01   7.0916016e+01
   6.6117188e+01   5.5986328e+01   7.0738281e+01
   6.6117188e+01   5.5808594e+01   7.0560547e+01
   6.6117188e+01   5.5630859e+01   7.0738281e+01
   6.5761719e+01   5.6164062e+01   7.0560547e+01
   6.5939453e+01   5.6164062e+01   7.0738281e+01
   6.5761719e+01   5.6164062e+01   7.0916016e+01
   6.5583984e+01   5.6164062e+01   7.0738281e+01
   6.5761719e+01   5.5986328e+01   7.1093750e+01
   6.5939453e+01   5.5808594e+01   7.1093750e+01
   6.5761719e+01   5.5630859e+01   7.1093750e+01
   6.5583984e+01   5.5808594e+01   7.1093750e+01
   6.6472656e+01   5.6164062e+01   7.0560547e+01
   6.6650391e+01   5.6164062e+01   7.0738281e+01
   6.6472656e+01   5.6164062e+01   7.0916016e+01
   6.6294922e+01   5.6164062e+01   7.0738281e+01
   6.6294922e+01   5.5808594e+01   7.1093750e+01
   6.6117188e+01   5.6519531e+01   7.0916016e+01
   6.6117188e+01   5.6697266e+01   7.0738281e+01
   6.6117188e+01   5.6519531e+01   7.0560547e+01
   6.6117188e+01   5.6341797e+01   7.0738281e+01
   6.5761719e+01   5.6875000e+01   7.0560547e+01
   6.5939453e+01   5.6875000e+01   7.0738281e+01
   6.5761719e+01   5.6875000e+01   7.0916016e+01
   6.5583984e+01   5.6875000e+01   7.0738281e+01
   6.5761719e+01   5.6697266e+01   7.1093750e+01
   6.5939453e+01   5.6519531e+01   7.1093750e+01
   6.5761719e+01   5.6341797e+01   7.1093750e+01
   6.5583984e+01   5.6519531e+01   7.1093750e+01
   6.6472656e+01   5.6875000e+01   7.0560547e+01
   6.6472656e+01   5.6875000e+01   7.0916016e+01
   6.6294922e+01   5.6875000e+01   7.0738281e+01
   6.6472656e+01   5.6697266e+01   7.1093750e+01
   6.6472656e+01   5.6341797e+01   7.1093750e+01
   6.6294922e+01   5.6519531e+01   7.1093750e+01
   6.4695312e+01   5.6519531e+01   7.1271484e+01
   6.5050781e+01   5.6875000e+01   7.1271484e+01
   6.4695312e+01   5.7230469e+01   6.9494141e+01
   6.4695312e+01   5.7408203e+01   6.9316406e+01
   6.4695312e+01   5.7052734e+01   6.9316406e+01
   6.4339844e+01   5.7585938e+01   6.9494141e+01
   6.4517578e+01   5.7230469e+01   6.9671875e+01
   6.5406250e+01   5.7230469e+01   6.9494141e+01
   6.5406250e+01   5.7408203e+01   6.9316406e+01
   6.5406250e+01   5.7052734e+01   6.9316406e+01
   6.5228516e+01   5.7585938e+01   6.9316406e+01
   6.5050781e+01   5.7585938e+01   6.9494141e+01
   6.4873047e+01   5.7585938e+01   6.9316406e+01
   6.5050781e+01   5.7408203e+01   6.9671875e+01
   6.5228516e+01   5.7230469e+01   6.9671875e+01
   6.5050781e+01   5.7052734e+01   6.9671875e+01
   6.4873047e+01   5.7230469e+01   6.9671875e+01
   6.4695312e+01   5.7941406e+01   6.9494141e+01
   6.4695312e+01   5.7763672e+01   6.9316406e+01
   6.4339844e+01   5.8296875e+01   6.9494141e+01
   6.4339844e+01   5.8119141e+01   6.9671875e+01
   6.4517578e+01   5.7941406e+01   6.9671875e+01
   6.4339844e+01   5.7763672e+01   6.9671875e+01
   6.5406250e+01   5.7941406e+01   6.9494141e+01
   6.5406250e+01   5.8119141e+01   6.9316406e+01
   6.5406250e+01   5.7763672e+01   6.9316406e+01
   6.5228516e+01   5.8296875e+01   6.9316406e+01
   6.5050781e+01   5.8296875e+01   6.9494141e+01
   6.4873047e+01   5.8296875e+01   6.9316406e+01
   6.5050781e+01   5.8119141e+01   6.9671875e+01
   6.5228516e+01   5.7941406e+01   6.9671875e+01
   6.5050781e+01   5.7763672e+01   6.9671875e+01
   6.4873047e+01   5.7941406e+01   6.9671875e+01
   6.4695312e+01   5.8652344e+01   6.9494141e+01
   6.4339844e+01   5.9007812e+01   6.9494141e+01
   6.4339844e+01   5.8830078e+01   6.9671875e+01
   6.4517578e+01   5.8652344e+01   6.9671875e+01
   6.4339844e+01   5.8474609e+01   6.9671875e+01
   6.5406250e+01   5.8652344e+01   6.9494141e+01
   6.5406250e+01   5.8830078e+01   6.9316406e+01
   6.5406250e+01   5.8474609e+01   6.9316406e+01
   6.5228516e+01   5.9007812e+01   6.9316406e+01
   6.5050781e+01   5.9007812e+01   6.9494141e+01
   6.4873047e+01   5.9007812e+01   6.9316406e+01
   6.5050781e+01   5.8830078e+01   6.9671875e+01
   6.5228516e+01   5.8652344e+01   6.9671875e+01
   6.5050781e+01   5.8474609e+01   6.9671875e+01
   6.4873047e+01   5.8652344e+01   6.9671875e+01
   6.4695312e+01   5.9363281e+01   6.9494141e+01
   6.4339844e+01   5.9718750e+01   6.9494141e+01
   6.4339844e+01   5.9541016e+01   6.9671875e+01
   6.4517578e+01   5.9363281e+01   6.9671875e+01
   6.4339844e+01   5.9185547e+01   6.9671875e+01
   6.4162109e+01   5.9363281e+01   6.9671875e+01
   6.5406250e+01   5.9363281e+01   6.9494141e+01
   6.5406250e+01   5.9541016e+01   6.9316406e+01
   6.5406250e+01   5.9185547e+01   6.9316406e+01
   6.5228516e+01   5.9718750e+01   6.9316406e+01
   6.5050781e+01   5.9718750e+01   6.9494141e+01
   6.5050781e+01   5.9541016e+01   6.9671875e+01
   6.5228516e+01   5.9363281e+01   6.9671875e+01
   6.5050781e+01   5.9185547e+01   6.9671875e+01
   6.4873047e+01   5.9363281e+01   6.9671875e+01
   6.4695312e+01   5.7230469e+01   7.0205078e+01
   6.4695312e+01   5.7408203e+01   7.0027344e+01
   6.4695312e+01   5.7230469e+01   6.9849609e+01
   6.4695312e+01   5.7052734e+01   7.0027344e+01
   6.4517578e+01   5.7585938e+01   7.0027344e+01
   6.4517578e+01   5.7230469e+01   7.0382812e+01
   6.5406250e+01   5.7230469e+01   7.0205078e+01
   6.5406250e+01   5.7408203e+01   7.0027344e+01
   6.5406250e+01   5.7230469e+01   6.9849609e+01
   6.5406250e+01   5.7052734e+01   7.0027344e+01
   6.5050781e+01   5.7585938e+01   6.9849609e+01
   6.5228516e+01   5.7585938e+01   7.0027344e+01
   6.5050781e+01   5.7585938e+01   7.0205078e+01
   6.4873047e+01   5.7585938e+01   7.0027344e+01
   6.5050781e+01   5.7408203e+01   7.0382812e+01
   6.5228516e+01   5.7230469e+01   7.0382812e+01
   6.5050781e+01   5.7052734e+01   7.0382812e+01
   6.4873047e+01   5.7230469e+01   7.0382812e+01
   6.4695312e+01   5.7941406e+01   7.0205078e+01
   6.4695312e+01   5.8119141e+01   7.0027344e+01
   6.4695312e+01   5.7941406e+01   6.9849609e+01
   6.4695312e+01   5.7763672e+01   7.0027344e+01
   6.4339844e+01   5.8296875e+01   6.9849609e+01
   6.4517578e+01   5.8296875e+01   7.0027344e+01
   6.4339844e+01   5.8296875e+01   7.0205078e+01
   6.4517578e+01   5.7941406e+01   7.0382812e+01
   6.5406250e+01   5.7941406e+01   7.0205078e+01
   6.5406250e+01   5.8119141e+01   7.0027344e+01
   6.5406250e+01   5.7941406e+01   6.9849609e+01
   6.5406250e+01   5.7763672e+01   7.0027344e+01
   6.5050781e+01   5.8296875e+01   6.9849609e+01
   6.5228516e+01   5.8296875e+01   7.0027344e+01
   6.5050781e+01   5.8296875e+01   7.0205078e+01
   6.4873047e+01   5.8296875e+01   7.0027344e+01
   6.5050781e+01   5.8119141e+01   7.0382812e+01
   6.5228516e+01   5.7941406e+01   7.0382812e+01
   6.5050781e+01   5.7763672e+01   7.0382812e+01
   6.4873047e+01   5.7941406e+01   7.0382812e+01
   6.4695312e+01   5.7230469e+01   7.0916016e+01
   6.4695312e+01   5.7408203e+01   7.0738281e+01
   6.4695312e+01   5.7230469e+01   7.0560547e+01
   6.4695312e+01   5.7052734e+01   7.0738281e+01
   6.4517578e+01   5.7585938e+01   7.0738281e+01
   6.5406250e+01   5.7230469e+01   7.0916016e+01
   6.5406250e+01   5.7408203e+01   7.0738281e+01
   6.5406250e+01   5.7230469e+01   7.0560547e+01
   6.5406250e+01   5.7052734e+01   7.0738281e+01
   6.5050781e+01   5.7585938e+01   7.0560547e+01
   6.5228516e+01   5.7585938e+01   7.0738281e+01
   6.5050781e+01   5.7585938e+01   7.0916016e+01
   6.4873047e+01   5.7585938e+01   7.0738281e+01
   6.5050781e+01   5.7408203e+01   7.1093750e+01
   6.5228516e+01   5.7230469e+01   7.1093750e+01
   6.5050781e+01   5.7052734e+01   7.1093750e+01
   6.4873047e+01   5.7230469e+01   7.1093750e+01
   6.4695312e+01   5.7941406e+01   7.0916016e+01
   6.4695312e+01   5.8119141e+01   7.0738281e+01
   6.4695312e+01   5.7941406e+01   7.0560547e+01
   6.4695312e+01   5.7763672e+01   7.0738281e+01
   6.4517578e+01   5.8296875e+01   7.0738281e+01
   6.4517578e+01   5.7941406e+01   7.1093750e+01
   6.5406250e+01   5.7941406e+01   7.0916016e+01
   6.5406250e+01   5.8119141e+01   7.0738281e+01
   6.5406250e+01   5.7941406e+01   7.0560547e+01
   6.5406250e+01   5.7763672e+01   7.0738281e+01
   6.5050781e+01   5.8296875e+01   7.0560547e+01
   6.5228516e+01   5.8296875e+01   7.0738281e+01
   6.5050781e+01   5.8296875e+01   7.0916016e+01
   6.4873047e+01   5.8296875e+01   7.0738281e+01
   6.5050781e+01   5.8119141e+01   7.1093750e+01
   6.5228516e+01   5.7941406e+01   7.1093750e+01
   6.5050781e+01   5.7763672e+01   7.1093750e+01
   6.4873047e+01   5.7941406e+01   7.1093750e+01
   6.4695312e+01   5.8652344e+01   7.0205078e+01
   6.4695312e+01   5.8830078e+01   7.0027344e+01
   6.4695312e+01   5.8652344e+01   6.9849609e+01
   6.4695312e+01   5.8474609e+01   7.0027344e+01
   6.4339844e+01   5.9007812e+01   6.9849609e+01
   6.4517578e+01   5.9007812e+01   7.0027344e+01
   6.4339844e+01   5.9007812e+01   7.0205078e+01
   6.4339844e+01   5.8830078e+01   7.0382812e+01
   6.4517578e+01   5.8652344e+01   7.0382812e+01
   6.4339844e+01   5.8474609e+01   7.0382812e+01
   6.5406250e+01   5.8652344e+01   7.0205078e+01
   6.5406250e+01   5.8830078e+01   7.0027344e+01
   6.5406250e+01   5.8652344e+01   6.9849609e+01
   6.5406250e+01   5.8474609e+01   7.0027344e+01
   6.5050781e+01   5.9007812e+01   6.9849609e+01
   6.5228516e+01   5.9007812e+01   7.0027344e+01
   6.5050781e+01   5.9007812e+01   7.0205078e+01
   6.4873047e+01   5.9007812e+01   7.0027344e+01
   6.5050781e+01   5.8830078e+01   7.0382812e+01
   6.5228516e+01   5.8652344e+01   7.0382812e+01
   6.5050781e+01   5.8474609e+01   7.0382812e+01
   6.4873047e+01   5.8652344e+01   7.0382812e+01
   6.4695312e+01   5.9363281e+01   7.0205078e+01
   6.4695312e+01   5.9541016e+01   7.0027344e+01
   6.4695312e+01   5.9363281e+01   6.9849609e+01
   6.4695312e+01   5.9185547e+01   7.0027344e+01
   6.4339844e+01   5.9718750e+01   6.9849609e+01
   6.4517578e+01   5.9718750e+01   7.0027344e+01
   6.4339844e+01   5.9718750e+01   7.0205078e+01
   6.4162109e+01   5.9718750e+01   7.0027344e+01
   6.4339844e+01   5.9541016e+01   7.0382812e+01
   6.4517578e+01   5.9363281e+01   7.0382812e+01
   6.4339844e+01   5.9185547e+01   7.0382812e+01
   6.5406250e+01   5.9363281e+01   7.0205078e+01
   6.5406250e+01   5.9541016e+01   7.0027344e+01
   6.5406250e+01   5.9363281e+01   6.9849609e+01
   6.5406250e+01   5.9185547e+01   7.0027344e+01
   6.5050781e+01   5.9718750e+01   6.9849609e+01
   6.5228516e+01   5.9718750e+01   7.0027344e+01
   6.5050781e+01   5.9718750e+01   7.0205078e+01
   6.4873047e+01   5.9718750e+01   7.0027344e+01
   6.5050781e+01   5.9541016e+01   7.0382812e+01
   6.5228516e+01   5.9363281e+01   7.0382812e+01
   6.5050781e+01   5.9185547e+01   7.0382812e+01
   6.4873047e+01   5.9363281e+01   7.0382812e+01
   6.4695312e+01   5.8652344e+01   7.0916016e+01
   6.4695312e+01   5.8830078e+01   7.0738281e+01
   6.4695312e+01   5.8652344e+01   7.0560547e+01
   6.4695312e+01   5.8474609e+01   7.0738281e+01
   6.4339844e+01   5.9007812e+01   7.0560547e+01
   6.4517578e+01   5.9007812e+01   7.0738281e+01
   6.4339844e+01   5.9007812e+01   7.0916016e+01
   6.4517578e+01   5.8652344e+01   7.1093750e+01
   6.5406250e+01   5.8652344e+01   7.0916016e+01
   6.5406250e+01   5.8830078e+01   7.0738281e+01
   6.5406250e+01   5.8652344e+01   7.0560547e+01
   6.5406250e+01   5.8474609e+01   7.0738281e+01
   6.5050781e+01   5.9007812e+01   7.0560547e+01
   6.5228516e+01   5.9007812e+01   7.0738281e+01
   6.5050781e+01   5.9007812e+01   7.0916016e+01
   6.4873047e+01   5.9007812e+01   7.0738281e+01
   6.5050781e+01   5.8830078e+01   7.1093750e+01
   6.5228516e+01   5.8652344e+01   7.1093750e+01
   6.5050781e+01   5.8474609e+01   7.1093750e+01
   6.4873047e+01   5.8652344e+01   7.1093750e+01
   6.4695312e+01   5.9363281e+01   7.0916016e+01
   6.4695312e+01   5.9541016e+01   7.0738281e+01
   6.4695312e+01   5.9363281e+01   7.0560547e+01
   6.4695312e+01   5.9185547e+01   7.0738281e+01
   6.4339844e+01   5.9718750e+01   7.0560547e+01
   6.4517578e+01   5.9718750e+01   7.0738281e+01
   6.4339844e+01   5.9718750e+01   7.0916016e+01
   6.4339844e+01   5.9541016e+01   7.1093750e+01
   6.4517578e+01   5.9363281e+01   7.1093750e+01
   6.4339844e+01   5.9185547e+01   7.1093750e+01
   6.5406250e+01   5.9363281e+01   7.0916016e+01
   6.5406250e+01   5.9541016e+01   7.0738281e+01
   6.5406250e+01   5.9363281e+01   7.0560547e+01
   6.5406250e+01   5.9185547e+01   7.0738281e+01
   6.5050781e+01   5.9718750e+01   7.0560547e+01
   6.5228516e+01   5.9718750e+01   7.0738281e+01
   6.5050781e+01   5.9718750e+01   7.0916016e+01
   6.4873047e+01   5.9718750e+01   7.0738281e+01
   6.5050781e+01   5.9541016e+01   7.1093750e+01
   6.5228516e+01   5.9363281e+01   7.1093750e+01
   6.5050781e+01   5.9185547e+01   7.1093750e+01
   6.4873047e+01   5.9363281e+01   7.1093750e+01
   6.6117188e+01   5.7230469e+01   6.9494141e+01
   6.6117188e+01   5.7408203e+01   6.9316406e+01
   6.6117188e+01   5.7230469e+01   6.9138672e+01
   6.6117188e+01   5.7052734e+01   6.9316406e+01
   6.5939453e+01   5.7585938e+01   6.9316406e+01
   6.5761719e+01   5.7585938e+01   6.9494141e+01
   6.5583984e+01   5.7585938e+01   6.9316406e+01
   6.5761719e+01   5.7408203e+01   6.9671875e+01
   6.5939453e+01   5.7230469e+01   6.9671875e+01
   6.5761719e+01   5.7052734e+01   6.9671875e+01
   6.5583984e+01   5.7230469e+01   6.9671875e+01
   6.6294922e+01   5.7585938e+01   6.9316406e+01
   6.6294922e+01   5.7230469e+01   6.9671875e+01
   6.6117188e+01   5.7941406e+01   6.9494141e+01
   6.6117188e+01   5.8119141e+01   6.9316406e+01
   6.6117188e+01   5.7763672e+01   6.9316406e+01
   6.5939453e+01   5.8296875e+01   6.9316406e+01
   6.5761719e+01   5.8296875e+01   6.9494141e+01
   6.5583984e+01   5.8296875e+01   6.9316406e+01
   6.5761719e+01   5.8119141e+01   6.9671875e+01
   6.5939453e+01   5.7941406e+01   6.9671875e+01
   6.5761719e+01   5.7763672e+01   6.9671875e+01
   6.5583984e+01   5.7941406e+01   6.9671875e+01
   6.6294922e+01   5.7941406e+01   6.9671875e+01
   6.6117188e+01   5.8652344e+01   6.9494141e+01
   6.6117188e+01   5.8830078e+01   6.9316406e+01
   6.6117188e+01   5.8474609e+01   6.9316406e+01
   6.5939453e+01   5.9007812e+01   6.9316406e+01
   6.5761719e+01   5.9007812e+01   6.9494141e+01
   6.5583984e+01   5.9007812e+01   6.9316406e+01
   6.5761719e+01   5.8830078e+01   6.9671875e+01
   6.5939453e+01   5.8652344e+01   6.9671875e+01
   6.5761719e+01   5.8474609e+01   6.9671875e+01
   6.5583984e+01   5.8652344e+01   6.9671875e+01
   6.6117188e+01   5.9363281e+01   6.9494141e+01
   6.6117188e+01   5.9185547e+01   6.9316406e+01
   6.5939453e+01   5.9718750e+01   6.9316406e+01
   6.5761719e+01   5.9718750e+01   6.9494141e+01
   6.5583984e+01   5.9718750e+01   6.9316406e+01
   6.5761719e+01   5.9541016e+01   6.9671875e+01
   6.5939453e+01   5.9363281e+01   6.9671875e+01
   6.5761719e+01   5.9185547e+01   6.9671875e+01
   6.5583984e+01   5.9363281e+01   6.9671875e+01
   6.6117188e+01   5.7230469e+01   7.0205078e+01
   6.6117188e+01   5.7408203e+01   7.0027344e+01
   6.6117188e+01   5.7230469e+01   6.9849609e+01
   6.6117188e+01   5.7052734e+01   7.0027344e+01
   6.5761719e+01   5.7585938e+01   6.9849609e+01
   6.5939453e+01   5.7585938e+01   7.0027344e+01
   6.5761719e+01   5.7585938e+01   7.0205078e+01
   6.5583984e+01   5.7585938e+01   7.0027344e+01
   6.5761719e+01   5.7408203e+01   7.0382812e+01
   6.5939453e+01   5.7230469e+01   7.0382812e+01
   6.5761719e+01   5.7052734e+01   7.0382812e+01
   6.5583984e+01   5.7230469e+01   7.0382812e+01
   6.6294922e+01   5.7585938e+01   7.0027344e+01
   6.6472656e+01   5.7408203e+01   7.0382812e+01
   6.6472656e+01   5.7052734e+01   7.0382812e+01
   6.6294922e+01   5.7230469e+01   7.0382812e+01
   6.6117188e+01   5.7941406e+01   7.0205078e+01
   6.6117188e+01   5.8119141e+01   7.0027344e+01
   6.6117188e+01   5.7941406e+01   6.9849609e+01
   6.6117188e+01   5.7763672e+01   7.0027344e+01
   6.5761719e+01   5.8296875e+01   6.9849609e+01
   6.5939453e+01   5.8296875e+01   7.0027344e+01
   6.5761719e+01   5.8296875e+01   7.0205078e+01
   6.5583984e+01   5.8296875e+01   7.0027344e+01
   6.5761719e+01   5.8119141e+01   7.0382812e+01
   6.5939453e+01   5.7941406e+01   7.0382812e+01
   6.5761719e+01   5.7763672e+01   7.0382812e+01
   6.5583984e+01   5.7941406e+01   7.0382812e+01
   6.6294922e+01   5.8296875e+01   7.0027344e+01
   6.6294922e+01   5.7941406e+01   7.0382812e+01
   6.6117188e+01   5.7230469e+01   7.0916016e+01
   6.6117188e+01   5.7408203e+01   7.0738281e+01
   6.6117188e+01   5.7230469e+01   7.0560547e+01
   6.6117188e+01   5.7052734e+01   7.0738281e+01
   6.5761719e+01   5.7585938e+01   7.0560547e+01
   6.5939453e+01   5.7585938e+01   7.0738281e+01
   6.5761719e+01   5.7585938e+01   7.0916016e+01
   6.5583984e+01   5.7585938e+01   7.0738281e+01
   6.5761719e+01   5.7408203e+01   7.1093750e+01
   6.5939453e+01   5.7230469e+01   7.1093750e+01
   6.5761719e+01   5.7052734e+01   7.1093750e+01
   6.5583984e+01   5.7230469e+01   7.1093750e+01
   6.6472656e+01   5.7585938e+01   7.0560547e+01
   6.6294922e+01   5.7585938e+01   7.0738281e+01
   6.6472656e+01   5.7052734e+01   7.1093750e+01
   6.6294922e+01   5.7230469e+01   7.1093750e+01
   6.6117188e+01   5.7941406e+01   7.0916016e+01
   6.6117188e+01   5.8119141e+01   7.0738281e+01
   6.6117188e+01   5.7941406e+01   7.0560547e+01
   6.6117188e+01   5.7763672e+01   7.0738281e+01
   6.5761719e+01   5.8296875e+01   7.0560547e+01
   6.5939453e+01   5.8296875e+01   7.0738281e+01
   6.5761719e+01   5.8296875e+01   7.0916016e+01
   6.5583984e+01   5.8296875e+01   7.0738281e+01
   6.5761719e+01   5.8119141e+01   7.1093750e+01
   6.5939453e+01   5.7941406e+01   7.1093750e+01
   6.5761719e+01   5.7763672e+01   7.1093750e+01
   6.5583984e+01   5.7941406e+01   7.1093750e+01
   6.6294922e+01   5.8296875e+01   7.0738281e+01
   6.6404740e+01   5.8207119e+01   7.1114701e+01
   6.6117188e+01   5.8652344e+01   7.0205078e+01
   6.6117188e+01   5.8830078e+01   7.0027344e+01
   6.6117188e+01   5.8652344e+01   6.9849609e+01
   6.6117188e+01   5.8474609e+01   7.0027344e+01
   6.5761719e+01   5.9007812e+01   6.9849609e+01
   6.5939453e+01   5.9007812e+01   7.0027344e+01
   6.5761719e+01   5.9007812e+01   7.0205078e+01
   6.5583984e+01   5.9007812e+01   7.0027344e+01
   6.5761719e+01   5.8830078e+01   7.0382812e+01
   6.5939453e+01   5.8652344e+01   7.0382812e+01
   6.5761719e+01   5.8474609e+01   7.0382812e+01
   6.5583984e+01   5.8652344e+01   7.0382812e+01
   6.6294922e+01   5.8652344e+01   7.0382812e+01
   6.6117188e+01   5.9363281e+01   7.0205078e+01
   6.6117188e+01   5.9541016e+01   7.0027344e+01
   6.6117188e+01   5.9363281e+01   6.9849609e+01
   6.6117188e+01   5.9185547e+01   7.0027344e+01
   6.5761719e+01   5.9718750e+01   6.9849609e+01
   6.5939453e+01   5.9718750e+01   7.0027344e+01
   6.5761719e+01   5.9718750e+01   7.0205078e+01
   6.5583984e+01   5.9718750e+01   7.0027344e+01
   6.5761719e+01   5.9541016e+01   7.0382812e+01
   6.5939453e+01   5.9363281e+01   7.0382812e+01
   6.5761719e+01   5.9185547e+01   7.0382812e+01
   6.5583984e+01   5.9363281e+01   7.0382812e+01
   6.6117188e+01   5.8652344e+01   7.0916016e+01
   6.6117188e+01   5.8830078e+01   7.0738281e+01
   6.6117188e+01   5.8652344e+01   7.0560547e+01
   6.6117188e+01   5.8474609e+01   7.0738281e+01
   6.5761719e+01   5.9007812e+01   7.0560547e+01
   6.5939453e+01   5.9007812e+01   7.0738281e+01
   6.5761719e+01   5.9007812e+01   7.0916016e+01
   6.5583984e+01   5.9007812e+01   7.0738281e+01
   6.5761719e+01   5.8830078e+01   7.1093750e+01
   6.5939453e+01   5.8652344e+01   7.1093750e+01
   6.5761719e+01   5.8474609e+01   7.1093750e+01
   6.5583984e+01   5.8652344e+01   7.1093750e+01
   6.6240457e+01   5.8597879e+01   7.1039285e+01
   6.6049283e+01   5.9340646e+01   7.0893381e+01
   6.6228432e+01   5.9164326e+01   7.0717061e+01
   6.5761719e+01   5.9718750e+01   7.0560547e+01
   6.5583984e+01   5.9718750e+01   7.0738281e+01
   6.5686170e+01   5.9566198e+01   7.1068566e+01
   6.5916818e+01   5.9340646e+01   7.1025846e+01
   6.5829365e+01   5.9253193e+01   7.1116127e+01
   6.5562764e+01   5.9342061e+01   7.1072529e+01
   6.3984375e+01   6.0785156e+01   6.9494141e+01
   6.4695312e+01   6.0074219e+01   6.9494141e+01
   6.4339844e+01   6.0429688e+01   6.9494141e+01
   6.4339844e+01   6.0251953e+01   6.9671875e+01
   6.4517578e+01   6.0074219e+01   6.9671875e+01
   6.4339844e+01   5.9896484e+01   6.9671875e+01
   6.4162109e+01   6.0074219e+01   6.9671875e+01
   6.5406250e+01   6.0074219e+01   6.9494141e+01
   6.5406250e+01   6.0251953e+01   6.9316406e+01
   6.5406250e+01   5.9896484e+01   6.9316406e+01
   6.5228516e+01   6.0429688e+01   6.9316406e+01
   6.5050781e+01   6.0429688e+01   6.9494141e+01
   6.5050781e+01   6.0251953e+01   6.9671875e+01
   6.5228516e+01   6.0074219e+01   6.9671875e+01
   6.5050781e+01   5.9896484e+01   6.9671875e+01
   6.4873047e+01   6.0074219e+01   6.9671875e+01
   6.4695312e+01   6.0785156e+01   6.9494141e+01
   6.4339844e+01   6.1140625e+01   6.9494141e+01
   6.4339844e+01   6.0962891e+01   6.9671875e+01
   6.4517578e+01   6.0785156e+01   6.9671875e+01
   6.4339844e+01   6.0607422e+01   6.9671875e+01
   6.4162109e+01   6.0785156e+01   6.9671875e+01
   6.5406250e+01   6.0785156e+01   6.9494141e+01
   6.5406250e+01   6.0962891e+01   6.9316406e+01
   6.5406250e+01   6.0607422e+01   6.9316406e+01
   6.5228516e+01   6.1140625e+01   6.9316406e+01
   6.5050781e+01   6.1140625e+01   6.9494141e+01
   6.5050781e+01   6.0962891e+01   6.9671875e+01
   6.5228516e+01   6.0785156e+01   6.9671875e+01
   6.5050781e+01   6.0607422e+01   6.9671875e+01
   6.4873047e+01   6.0785156e+01   6.9671875e+01
   6.3984375e+01   6.1496094e+01   6.9494141e+01
   6.3984375e+01   6.2207031e+01   6.9494141e+01
   6.3806641e+01   6.2207031e+01   6.9671875e+01
   6.4695312e+01   6.1496094e+01   6.9494141e+01
   6.4339844e+01   6.1851562e+01   6.9494141e+01
   6.4339844e+01   6.1673828e+01   6.9671875e+01
   6.4517578e+01   6.1496094e+01   6.9671875e+01
   6.4339844e+01   6.1318359e+01   6.9671875e+01
   6.4162109e+01   6.1496094e+01   6.9671875e+01
   6.5406250e+01   6.1496094e+01   6.9494141e+01
   6.5406250e+01   6.1673828e+01   6.9316406e+01
   6.5406250e+01   6.1318359e+01   6.9316406e+01
   6.5228516e+01   6.1851562e+01   6.9316406e+01
   6.5050781e+01   6.1851562e+01   6.9494141e+01
   6.5050781e+01   6.1673828e+01   6.9671875e+01
   6.5228516e+01   6.1496094e+01   6.9671875e+01
   6.5050781e+01   6.1318359e+01   6.9671875e+01
   6.4873047e+01   6.1496094e+01   6.9671875e+01
   6.4695312e+01   6.2207031e+01   6.9494141e+01
   6.4339844e+01   6.2562500e+01   6.9494141e+01
   6.4339844e+01   6.2384766e+01   6.9671875e+01
   6.4517578e+01   6.2207031e+01   6.9671875e+01
   6.4339844e+01   6.2029297e+01   6.9671875e+01
   6.4162109e+01   6.2207031e+01   6.9671875e+01
   6.5406250e+01   6.2207031e+01   6.9494141e+01
   6.5406250e+01   6.2384766e+01   6.9316406e+01
   6.5406250e+01   6.2029297e+01   6.9316406e+01
   6.5050781e+01   6.2562500e+01   6.9494141e+01
   6.5050781e+01   6.2384766e+01   6.9671875e+01
   6.5228516e+01   6.2207031e+01   6.9671875e+01
   6.5050781e+01   6.2029297e+01   6.9671875e+01
   6.4873047e+01   6.2207031e+01   6.9671875e+01
   6.3984375e+01   6.0962891e+01   7.0027344e+01
   6.3984375e+01   6.0785156e+01   6.9849609e+01
   6.4695312e+01   6.0074219e+01   7.0205078e+01
   6.4695312e+01   6.0251953e+01   7.0027344e+01
   6.4695312e+01   6.0074219e+01   6.9849609e+01
   6.4695312e+01   5.9896484e+01   7.0027344e+01
   6.4339844e+01   6.0429688e+01   6.9849609e+01
   6.4517578e+01   6.0429688e+01   7.0027344e+01
   6.4339844e+01   6.0429688e+01   7.0205078e+01
   6.4162109e+01   6.0429688e+01   7.0027344e+01
   6.4339844e+01   6.0251953e+01   7.0382812e+01
   6.4517578e+01   6.0074219e+01   7.0382812e+01
   6.4339844e+01   5.9896484e+01   7.0382812e+01
   6.4162109e+01   6.0074219e+01   7.0382812e+01
   6.5406250e+01   6.0074219e+01   7.0205078e+01
   6.5406250e+01   6.0251953e+01   7.0027344e+01
   6.5406250e+01   6.0074219e+01   6.9849609e+01
   6.5406250e+01   5.9896484e+01   7.0027344e+01
   6.5050781e+01   6.0429688e+01   6.9849609e+01
   6.5228516e+01   6.0429688e+01   7.0027344e+01
   6.5050781e+01   6.0429688e+01   7.0205078e+01
   6.4873047e+01   6.0429688e+01   7.0027344e+01
   6.5050781e+01   6.0251953e+01   7.0382812e+01
   6.5228516e+01   6.0074219e+01   7.0382812e+01
   6.5050781e+01   5.9896484e+01   7.0382812e+01
   6.4873047e+01   6.0074219e+01   7.0382812e+01
   6.4695312e+01   6.0785156e+01   7.0205078e+01
   6.4695312e+01   6.0962891e+01   7.0027344e+01
   6.4695312e+01   6.0785156e+01   6.9849609e+01
   6.4695312e+01   6.0607422e+01   7.0027344e+01
   6.4339844e+01   6.1140625e+01   6.9849609e+01
   6.4517578e+01   6.1140625e+01   7.0027344e+01
   6.4339844e+01   6.1140625e+01   7.0205078e+01
   6.4162109e+01   6.1140625e+01   7.0027344e+01
   6.4339844e+01   6.0962891e+01   7.0382812e+01
   6.4517578e+01   6.0785156e+01   7.0382812e+01
   6.4339844e+01   6.0607422e+01   7.0382812e+01
   6.4162109e+01   6.0785156e+01   7.0382812e+01
   6.5406250e+01   6.0785156e+01   7.0205078e+01
   6.5406250e+01   6.0962891e+01   7.0027344e+01
   6.5406250e+01   6.0785156e+01   6.9849609e+01
   6.5406250e+01   6.0607422e+01   7.0027344e+01
   6.5050781e+01   6.1140625e+01   6.9849609e+01
   6.5228516e+01   6.1140625e+01   7.0027344e+01
   6.5050781e+01   6.1140625e+01   7.0205078e+01
   6.4873047e+01   6.1140625e+01   7.0027344e+01
   6.5050781e+01   6.0962891e+01   7.0382812e+01
   6.5228516e+01   6.0785156e+01   7.0382812e+01
   6.5050781e+01   6.0607422e+01   7.0382812e+01
   6.4873047e+01   6.0785156e+01   7.0382812e+01
   6.4695312e+01   6.0074219e+01   7.0916016e+01
   6.4695312e+01   6.0251953e+01   7.0738281e+01
   6.4695312e+01   6.0074219e+01   7.0560547e+01
   6.4695312e+01   5.9896484e+01   7.0738281e+01
   6.4339844e+01   6.0429688e+01   7.0560547e+01
   6.4517578e+01   6.0429688e+01   7.0738281e+01
   6.4339844e+01   6.0429688e+01   7.0916016e+01
   6.4162109e+01   6.0429688e+01   7.0738281e+01
   6.4339844e+01   6.0251953e+01   7.1093750e+01
   6.4517578e+01   6.0074219e+01   7.1093750e+01
   6.4339844e+01   5.9896484e+01   7.1093750e+01
   6.5406250e+01   6.0074219e+01   7.0916016e+01
   6.5406250e+01   6.0251953e+01   7.0738281e+01
   6.5406250e+01   6.0074219e+01   7.0560547e+01
   6.5406250e+01   5.9896484e+01   7.0738281e+01
   6.5050781e+01   6.0429688e+01   7.0560547e+01
   6.5228516e+01   6.0429688e+01   7.0738281e+01
   6.5050781e+01   6.0429688e+01   7.0916016e+01
   6.4873047e+01   6.0429688e+01   7.0738281e+01
   6.5050781e+01   6.0251953e+01   7.1093750e+01
   6.5228516e+01   6.0074219e+01   7.1093750e+01
   6.5050781e+01   5.9896484e+01   7.1093750e+01
   6.4873047e+01   6.0074219e+01   7.1093750e+01
   6.4695312e+01   6.0785156e+01   7.0916016e+01
   6.4695312e+01   6.0962891e+01   7.0738281e+01
   6.4695312e+01   6.0785156e+01   7.0560547e+01
   6.4695312e+01   6.0607422e+01   7.0738281e+01
   6.4339844e+01   6.1140625e+01   7.0560547e+01
   6.4517578e+01   6.1140625e+01   7.0738281e+01
   6.4339844e+01   6.1140625e+01   7.0916016e+01
   6.4162109e+01   6.1140625e+01   7.0738281e+01
   6.4339844e+01   6.0962891e+01   7.1093750e+01
   6.4517578e+01   6.0785156e+01   7.1093750e+01
   6.4339844e+01   6.0607422e+01   7.1093750e+01
   6.4162109e+01   6.0785156e+01   7.1093750e+01
   6.5462702e+01   6.0730903e+01   7.0972467e+01
   6.5373835e+01   6.0930476e+01   7.0794732e+01
   6.5406250e+01   6.0785156e+01   7.0560547e+01
   6.5406250e+01   6.0607422e+01   7.0738281e+01
   6.5050781e+01   6.1140625e+01   7.0560547e+01
   6.4873047e+01   6.1140625e+01   7.0738281e+01
   6.5005213e+01   6.1015700e+01   7.1137785e+01
   6.5271814e+01   6.0727261e+01   7.1137785e+01
   6.5037628e+01   6.0603779e+01   7.1081334e+01
   6.4859894e+01   6.0781514e+01   7.1081334e+01
   6.3984375e+01   6.1496094e+01   7.0205078e+01
   6.3984375e+01   6.1673828e+01   7.0027344e+01
   6.3984375e+01   6.1496094e+01   6.9849609e+01
   6.3984375e+01   6.1318359e+01   7.0027344e+01
   6.3984375e+01   6.2207031e+01   7.0205078e+01
   6.3984375e+01   6.2384766e+01   7.0027344e+01
   6.3984375e+01   6.2207031e+01   6.9849609e+01
   6.3984375e+01   6.2029297e+01   7.0027344e+01
   6.3806641e+01   6.2562500e+01   7.0027344e+01
   6.3984375e+01   6.1673828e+01   7.0738281e+01
   6.3984375e+01   6.1496094e+01   7.0560547e+01
   6.3984375e+01   6.2207031e+01   7.0916016e+01
   6.3984375e+01   6.2384766e+01   7.0738281e+01
   6.3984375e+01   6.2207031e+01   7.0560547e+01
   6.3984375e+01   6.2029297e+01   7.0738281e+01
   6.4695312e+01   6.1496094e+01   7.0205078e+01
   6.4695312e+01   6.1673828e+01   7.0027344e+01
   6.4695312e+01   6.1496094e+01   6.9849609e+01
   6.4695312e+01   6.1318359e+01   7.0027344e+01
   6.4339844e+01   6.1851562e+01   6.9849609e+01
   6.4517578e+01   6.1851562e+01   7.0027344e+01
   6.4339844e+01   6.1851562e+01   7.0205078e+01
   6.4162109e+01   6.1851562e+01   7.0027344e+01
   6.4339844e+01   6.1673828e+01   7.0382812e+01
   6.4517578e+01   6.1496094e+01   7.0382812e+01
   6.4339844e+01   6.1318359e+01   7.0382812e+01
   6.4162109e+01   6.1496094e+01   7.0382812e+01
   6.5406250e+01   6.1496094e+01   7.0205078e+01
   6.5406250e+01   6.1673828e+01   7.0027344e+01
   6.5406250e+01   6.1496094e+01   6.9849609e+01
   6.5406250e+01   6.1318359e+01   7.0027344e+01
   6.5050781e+01   6.1851562e+01   6.9849609e+01
   6.5228516e+01   6.1851562e+01   7.0027344e+01
   6.5050781e+01   6.1851562e+01   7.0205078e+01
   6.4873047e+01   6.1851562e+01   7.0027344e+01
   6.5050781e+01   6.1673828e+01   7.0382812e+01
   6.5228516e+01   6.1496094e+01   7.0382812e+01
   6.5050781e+01   6.1318359e+01   7.0382812e+01
   6.4873047e+01   6.1496094e+01   7.0382812e+01
   6.4695312e+01   6.2207031e+01   7.0205078e+01
   6.4695312e+01   6.2384766e+01   7.0027344e+01
   6.4695312e+01   6.2207031e+01   6.9849609e+01
   6.4695312e+01   6.2029297e+01   7.0027344e+01
   6.4339844e+01   6.2562500e+01   6.9849609e+01
   6.4517578e+01   6.2562500e+01   7.0027344e+01
   6.4339844e+01   6.2562500e+01   7.0205078e+01
   6.4162109e+01   6.2562500e+01   7.0027344e+01
   6.4339844e+01   6.2384766e+01   7.0382812e+01
   6.4517578e+01   6.2207031e+01   7.0382812e+01
   6.4339844e+01   6.2029297e+01   7.0382812e+01
   6.4162109e+01   6.2207031e+01   7.0382812e+01
   6.5303177e+01   6.2171923e+01   7.0169969e+01
   6.5303177e+01   6.2349657e+01   7.0059262e+01
   6.5409561e+01   6.2318807e+01   6.9852920e+01
   6.5374926e+01   6.1997973e+01   6.9996020e+01
   6.5050781e+01   6.2562500e+01   6.9849609e+01
   6.5228516e+01   6.2562500e+01   6.9916637e+01
   6.5015673e+01   6.2616259e+01   7.0258836e+01
   6.4873047e+01   6.2562500e+01   7.0027344e+01
   6.4982159e+01   6.2472038e+01   7.0403057e+01
   6.5193407e+01   6.2171923e+01   7.0297338e+01
   6.5029561e+01   6.2008076e+01   7.0488961e+01
   6.4851826e+01   6.2185811e+01   7.0488961e+01
   6.4695312e+01   6.1496094e+01   7.0916016e+01
   6.4695312e+01   6.1673828e+01   7.0738281e+01
   6.4695312e+01   6.1496094e+01   7.0560547e+01
   6.4695312e+01   6.1318359e+01   7.0738281e+01
   6.4339844e+01   6.1851562e+01   7.0560547e+01
   6.4517578e+01   6.1851562e+01   7.0738281e+01
   6.4339844e+01   6.1851562e+01   7.0916016e+01
   6.4162109e+01   6.1851562e+01   7.0738281e+01
   6.4339844e+01   6.1673828e+01   7.1093750e+01
   6.4517578e+01   6.1496094e+01   7.1093750e+01
   6.4339844e+01   6.1318359e+01   7.1093750e+01
   6.4162109e+01   6.1496094e+01   7.1093750e+01
   6.5154686e+01   6.1483801e+01   7.0793016e+01
   6.5210039e+01   6.1606182e+01   7.0670635e+01
   6.5312088e+01   6.1530496e+01   7.0594949e+01
   6.5351785e+01   6.1263895e+01   7.0594949e+01
   6.5029561e+01   6.1919209e+01   7.0539326e+01
   6.5160869e+01   6.1695049e+01   7.0670635e+01
   6.4983135e+01   6.1695049e+01   7.0848369e+01
   6.4983135e+01   6.1606182e+01   7.0897539e+01
   6.5105516e+01   6.1483801e+01   7.0842186e+01
   6.5084295e+01   6.1373713e+01   7.0909832e+01
   6.4818583e+01   6.1441629e+01   7.1039285e+01
   6.4611739e+01   6.2172629e+01   7.0881613e+01
   6.4858010e+01   6.2308191e+01   7.0594680e+01
   6.4802656e+01   6.2008076e+01   7.0717061e+01
   6.4339844e+01   6.2562500e+01   7.0560547e+01
   6.4572042e+01   6.2616965e+01   7.0703879e+01
   6.4394308e+01   6.2528098e+01   7.0881613e+01
   6.4162109e+01   6.2562500e+01   7.0738281e+01
   6.4217463e+01   6.2418279e+01   7.1060236e+01
   6.4483175e+01   6.2172629e+01   7.1010178e+01
   6.4407490e+01   6.2096943e+01   7.1112227e+01
   6.4140889e+01   6.2185811e+01   7.1072529e+01
   6.4871948e+01   6.2539562e+01   7.0470582e+01
   6.4783081e+01   6.2539562e+01   7.0559449e+01
   6.5939453e+01   6.0429688e+01   6.9316406e+01
   6.5761719e+01   6.0429688e+01   6.9494141e+01
   6.5583984e+01   6.0429688e+01   6.9316406e+01
   6.5761719e+01   6.0251953e+01   6.9671875e+01
   6.5939453e+01   6.0074219e+01   6.9671875e+01
   6.5761719e+01   5.9896484e+01   6.9671875e+01
   6.5583984e+01   6.0074219e+01   6.9671875e+01
   6.5761719e+01   6.1140625e+01   6.9494141e+01
   6.5583984e+01   6.1140625e+01   6.9316406e+01
   6.5761719e+01   6.0962891e+01   6.9671875e+01
   6.5939453e+01   6.0785156e+01   6.9671875e+01
   6.5761719e+01   6.0607422e+01   6.9671875e+01
   6.5583984e+01   6.0785156e+01   6.9671875e+01
   6.5749303e+01   6.1847919e+01   6.9480717e+01
   6.5583984e+01   6.1851562e+01   6.9316406e+01
   6.5749303e+01   6.1670185e+01   6.9658451e+01
   6.5761719e+01   6.1318359e+01   6.9671875e+01
   6.5583984e+01   6.1496094e+01   6.9671875e+01
   6.5742607e+01   6.2503870e+01   6.9425730e+01
   6.5571568e+01   6.2558857e+01   6.9302982e+01
   6.5578043e+01   6.2438998e+01   6.9617643e+01
   6.5806846e+01   6.2083196e+01   6.9629496e+01
   6.5552660e+01   6.2175707e+01   6.9640551e+01
   6.6128865e+01   6.0077862e+01   7.0218230e+01
   6.6117188e+01   5.9896484e+01   7.0027344e+01
   6.5761719e+01   6.0429688e+01   6.9849609e+01
   6.5951131e+01   6.0433331e+01   7.0040496e+01
   6.5773396e+01   6.0433331e+01   7.0218230e+01
   6.5583984e+01   6.0429688e+01   7.0027344e+01
   6.5773396e+01   6.0255597e+01   7.0395965e+01
   6.5951131e+01   6.0077862e+01   7.0395965e+01
   6.5761719e+01   5.9896484e+01   7.0382812e+01
   6.5583984e+01   6.0074219e+01   7.0382812e+01
   6.6046693e+01   6.0754920e+01   7.0184350e+01
   6.5761719e+01   6.1140625e+01   6.9849609e+01
   6.5939086e+01   6.1250966e+01   7.0026977e+01
   6.5583984e+01   6.1140625e+01   7.0027344e+01
   6.5672852e+01   6.0962891e+01   7.0382812e+01
   6.5773396e+01   6.0611065e+01   7.0395965e+01
   6.5583984e+01   6.0785156e+01   7.0382812e+01
   6.5940342e+01   6.0053268e+01   7.0828037e+01
   6.6093756e+01   6.0131621e+01   7.0627457e+01
   6.6082078e+01   5.9861376e+01   7.0652807e+01
   6.5773396e+01   6.0433331e+01   7.0573699e+01
   6.5896666e+01   6.0378866e+01   7.0696969e+01
   6.5583984e+01   6.0429688e+01   7.0738281e+01
   6.5612203e+01   6.0341709e+01   7.1072799e+01
   6.5851475e+01   6.0053268e+01   7.0916904e+01
   6.5855574e+01   5.9929998e+01   7.0971369e+01
   6.5548875e+01   6.0039110e+01   7.1058641e+01
   6.5618387e+01   6.1086160e+01   7.0506082e+01
   6.5529520e+01   6.1086160e+01   7.0594949e+01
   6.5565509e+01   6.0539774e+01   7.1026104e+01
   6.5516339e+01   6.0606804e+01   7.1026104e+01
   6.5864744e+01   6.1483801e+01   7.0082078e+01
   6.5907682e+01   6.1602538e+01   6.9946273e+01
   6.5717979e+01   6.1816595e+01   6.9804861e+01
   6.5859391e+01   6.1671809e+01   6.9946273e+01
   6.5694072e+01   6.1675452e+01   7.0137432e+01
   6.5641527e+01   6.1800642e+01   7.0084887e+01
   6.5694072e+01   6.1606182e+01   7.0186602e+01
   6.5816453e+01   6.1483801e+01   7.0131248e+01
   6.5740768e+01   6.1408115e+01   7.0233297e+01
   6.5529520e+01   6.1441629e+01   7.0328348e+01
   6.5510397e+01   6.2549086e+01   6.9727730e+01
   6.5462106e+01   6.2549086e+01   6.9794758e+01
   6.4695312e+01   5.7230469e+01   7.1271484e+01
   6.5050781e+01   5.7585938e+01   7.1271484e+01
   6.4695312e+01   5.7941406e+01   7.1271484e+01
   6.5050781e+01   5.8296875e+01   7.1271484e+01
   6.4695312e+01   5.8652344e+01   7.1271484e+01
   6.5050781e+01   5.9007812e+01   7.1271484e+01
   6.4695312e+01   5.9363281e+01   7.1271484e+01
   6.4339844e+01   5.9718750e+01   7.1271484e+01
   6.5050781e+01   5.9718750e+01   7.1271484e+01
   6.5651061e+01   5.9708824e+01   7.1211191e+01
   6.4695312e+01   6.0074219e+01   7.1271484e+01
   6.4339844e+01   6.0429688e+01   7.1271484e+01
   6.5404654e+01   6.0183331e+01   7.1269889e+01
   6.5037628e+01   6.0426045e+01   7.1259068e+01
   6.5215362e+01   6.0426045e+01   7.1303590e+01
   6.4682159e+01   6.0781514e+01   7.1259068e+01
   6.4339844e+01   6.1140625e+01   7.1271484e+01
   6.5325451e+01   6.0603161e+01   7.1191422e+01
   6.5325451e+01   6.0536132e+01   7.1235943e+01
   6.4894297e+01   6.1082518e+01   7.1204604e+01
   6.4018508e+01   6.2308191e+01   7.1305617e+01
   6.4499102e+01   6.1606182e+01   7.1381572e+01
   6.4601151e+01   6.1530496e+01   7.1305887e+01
   6.4640849e+01   6.1263895e+01   7.1305887e+01
   6.4318623e+01   6.1830342e+01   7.1250264e+01
   6.4449932e+01   6.1695049e+01   7.1381572e+01
   6.4161011e+01   6.2539562e+01   7.1181520e+01
   6.4072144e+01   6.2539562e+01   7.1270387e+01
   6.5510155e+01   6.0417394e+01   7.1148484e+01
   6.5393834e+01   6.2803621e+01   6.9480717e+01
   6.5393834e+01   6.2736592e+01   6.9302982e+01
   6.5050781e+01   6.2740234e+01   6.9671875e+01
   6.4695312e+01   6.2740234e+01   7.0027344e+01
   6.5338604e+01   6.2672588e+01   6.9848990e+01
   6.4905462e+01   6.2683782e+01   7.0326361e+01
   6.4638860e+01   6.2683782e+01   7.0592963e+01
   6.5552214e+01   6.2668945e+01   6.9590805e+01
   6.5503923e+01   6.2735975e+01   6.9590805e+01
   6.7894531e+01   4.3900391e+01   6.8911768e+01
   6.7716797e+01   4.3722656e+01   6.8911768e+01
   6.7750930e+01   4.3799229e+01   6.9123635e+01
   6.7646406e+01   4.3921610e+01   6.9295186e+01
   6.7489893e+01   4.3900391e+01   6.9316406e+01
   6.7634113e+01   4.3689143e+01   6.9105158e+01
   6.7489893e+01   4.3722656e+01   6.9138672e+01
   6.7251240e+01   4.3832743e+01   6.9690352e+01
   6.7150080e+01   4.3600275e+01   6.9678059e+01
   6.7128859e+01   4.3710362e+01   6.9745705e+01
   6.7039992e+01   4.3799229e+01   6.9706008e+01
   6.7873311e+01   4.4099345e+01   6.9117451e+01
   6.7962178e+01   4.4099345e+01   6.9206318e+01
   6.7826885e+01   4.4234640e+01   6.9426494e+01
   6.7695576e+01   4.4099345e+01   6.9295186e+01
   6.7784443e+01   4.4099345e+01   6.9384053e+01
   6.7824955e+01   4.4779245e+01   6.9553129e+01
   6.7864652e+01   4.4868112e+01   6.9464262e+01
   6.7830250e+01   4.4724780e+01   6.9429859e+01
   6.7764018e+01   4.4613278e+01   6.9586631e+01
   6.7830250e+01   4.4547046e+01   6.9475129e+01
   6.7716797e+01   4.4433594e+01   6.9539410e+01
   6.7826615e+01   4.5323155e+01   6.9692826e+01
   6.7861018e+01   4.5288752e+01   6.9549494e+01
   6.7784713e+01   4.4965908e+01   6.9650924e+01
   6.7840066e+01   4.5021262e+01   6.9528543e+01
   6.7716797e+01   4.5144531e+01   6.9583008e+01
   6.7715908e+01   4.5212448e+01   6.9759854e+01
   6.6806904e+01   4.3921610e+01   7.0006123e+01
   6.6794611e+01   4.3689143e+01   6.9816096e+01
   6.6901955e+01   4.3710362e+01   6.9972609e+01
   6.6760209e+01   4.3545812e+01   7.0048295e+01
   6.6799906e+01   4.3634679e+01   7.0048295e+01
   6.6472656e+01   4.3900391e+01   7.0333643e+01
   6.6403619e+01   4.3544690e+01   7.0442340e+01
   6.6438254e+01   4.3579325e+01   7.0299240e+01
   6.6294922e+01   4.3722656e+01   7.0333643e+01
   6.6326895e+01   4.3799149e+01   7.0543350e+01
   6.6205635e+01   4.3922651e+01   7.0671500e+01
   6.6193260e+01   4.3688021e+01   7.0525912e+01
   6.6463180e+01   4.4101220e+01   7.0550611e+01
   6.6285445e+01   4.4101220e+01   7.0683824e+01
   6.7162373e+01   4.4099345e+01   6.9828389e+01
   6.7251240e+01   4.4099345e+01   6.9917256e+01
   6.7293682e+01   4.4234640e+01   6.9959697e+01
   6.7115947e+01   4.4234640e+01   7.0137432e+01
   6.6984639e+01   4.4099345e+01   7.0006123e+01
   6.7073506e+01   4.4099345e+01   7.0094990e+01
   6.6108750e+01   4.4455648e+01   7.0907119e+01
   6.6197617e+01   4.4189047e+01   7.0773730e+01
   6.6108750e+01   4.4277914e+01   7.0729385e+01
   6.6774676e+01   4.4678395e+01   7.0555809e+01
   6.6607592e+01   4.4845479e+01   7.0744193e+01
   6.6663174e+01   4.4789896e+01   7.0622041e+01
   6.6429857e+01   4.4845479e+01   7.0872758e+01
   6.6791354e+01   4.5267802e+01   7.0743576e+01
   6.6793723e+01   4.5356669e+01   7.0654709e+01
   6.6772771e+01   4.5089178e+01   7.0505193e+01
   6.6824867e+01   4.5123581e+01   7.0648525e+01
   6.6770402e+01   4.5000311e+01   7.0643230e+01
   6.6681307e+01   4.5022379e+01   7.0731869e+01
   6.6681988e+01   4.5576867e+01   7.0898443e+01
