   6.9438103e+01   4.8861073e+01   6.3451113e+01
   7.0449214e+01   4.5827740e+01   6.4162051e+01
   6.9438103e+01   4.6838851e+01   6.4162051e+01
   7.0449214e+01   4.6838851e+01   6.4162051e+01
   6.8426992e+01   4.7849962e+01   6.4162051e+01
   6.9438103e+01   4.7849962e+01   6.4162051e+01
   7.0449214e+01   4.7849962e+01   6.4162051e+01
   6.8426992e+01   4.8861073e+01   6.4162051e+01
   6.9438103e+01   4.8861073e+01   6.4162051e+01
   7.0449214e+01   4.8861073e+01   6.4162051e+01
   6.9438103e+01   4.4816629e+01   6.4872989e+01
   7.0449214e+01   4.4816629e+01   6.4872989e+01
   6.9438103e+01   4.5827740e+01   6.4872989e+01
   7.0449214e+01   4.5827740e+01   6.4872989e+01
   6.8426992e+01   4.6838851e+01   6.4872989e+01
   6.9438103e+01   4.6838851e+01   6.4872989e+01
   7.0449214e+01   4.6838851e+01   6.4872989e+01
   6.7415881e+01   4.7849962e+01   6.4872989e+01
   6.8426992e+01   4.7849962e+01   6.4872989e+01
   6.9438103e+01   4.7849962e+01   6.4872989e+01
   7.0449214e+01   4.7849962e+01   6.4872989e+01
   6.6404770e+01   4.8861073e+01   6.4872989e+01
   6.7415881e+01   4.8861073e+01   6.4872989e+01
   6.8426992e+01   4.8861073e+01   6.4872989e+01
   6.9438103e+01   4.8861073e+01   6.4872989e+01
   7.0449214e+01   4.8861073e+01   6.4872989e+01
   6.8426992e+01   4.4816629e+01   6.5583927e+01
   6.9438103e+01   4.4816629e+01   6.5583927e+01
   7.0449214e+01   4.4816629e+01   6.5583927e+01
   6.7415881e+01   4.5827740e+01   6.5583927e+01
   6.8426992e+01   4.5827740e+01   6.5583927e+01
   6.9438103e+01   4.5827740e+01   6.5583927e+01
   7.0449214e+01   4.5827740e+01   6.5583927e+01
   6.6404770e+01   4.6838851e+01   6.5583927e+01
   6.7415881e+01   4.6838851e+01   6.5583927e+01
   6.8426992e+01   4.6838851e+01   6.5583927e+01
   6.9438103e+01   4.6838851e+01   6.5583927e+01
   7.0449214e+01   4.6838851e+01   6.5583927e+01
   6.6404770e+01   4.7849962e+01   6.5583927e+01
   6.7415881e+01   4.7849962e+01   6.5583927e+01
   6.8426992e+01   4.7849962e+01   6.5583927e+01
   6.9438103e+01   4.7849962e+01   6.5583927e+01
   7.0449214e+01   4.7849962e+01   6.5583927e+01
   6.6404770e+01   4.8861073e+01   6.5583927e+01
   6.7415881e+01   4.8861073e+01   6.5583927e+01
   6.8426992e+01   4.8861073e+01   6.5583927e+01
   6.9438103e+01   4.8861073e+01   6.5583927e+01
   7.0449214e+01   4.8861073e+01   6.5583927e+01
   6.6404770e+01   4.4816629e+01   6.6294865e+01
   6.7415881e+01   4.4816629e+01   6.6294865e+01
   6.8426992e+01   4.4816629e+01   6.6294865e+01
   6.9438103e+01   4.4816629e+01   6.6294865e+01
   7.0449214e+01   4.4816629e+01   6.6294865e+01
   6.6404770e+01   4.5827740e+01   6.6294865e+01
   6.7415881e+01   4.5827740e+01   6.6294865e+01
   6.8426992e+01   4.5827740e+01   6.6294865e+01
   6.9438103e+01   4.5827740e+01   6.6294865e+01
   7.0449214e+01   4.5827740e+01   6.6294865e+01
   6.6404770e+01   4.6838851e+01   6.6294865e+01
   6.7415881e+01   4.6838851e+01   6.6294865e+01
   6.8426992e+01   4.6838851e+01   6.6294865e+01
   6.9438103e+01   4.6838851e+01   6.6294865e+01
   7.0449214e+01   4.6838851e+01   6.6294865e+01
   7.1460325e+01   4.6838851e+01   6.6294865e+01
   6.6404770e+01   4.7849962e+01   6.6294865e+01
   6.7415881e+01   4.7849962e+01   6.6294865e+01
   6.8426992e+01   4.7849962e+01   6.6294865e+01
   6.9438103e+01   4.7849962e+01   6.6294865e+01
   7.0449214e+01   4.7849962e+01   6.6294865e+01
   7.1460325e+01   4.7849962e+01   6.6294865e+01
   6.6404770e+01   4.8861073e+01   6.6294865e+01
   6.7415881e+01   4.8861073e+01   6.6294865e+01
   6.8426992e+01   4.8861073e+01   6.6294865e+01
   6.9438103e+01   4.8861073e+01   6.6294865e+01
   7.0449214e+01   4.8861073e+01   6.6294865e+01
   6.9438103e+01   4.9872184e+01   6.6294865e+01
   7.0449214e+01   4.9872184e+01   6.6294865e+01
   6.6404770e+01   4.4816629e+01   6.7005803e+01
   6.7415881e+01   4.4816629e+01   6.7005803e+01
   6.8426992e+01   4.4816629e+01   6.7005803e+01
   6.6404770e+01   4.5827740e+01   6.7005803e+01
   6.7415881e+01   4.5827740e+01   6.7005803e+01
   6.8426992e+01   4.5827740e+01   6.7005803e+01
   6.9438103e+01   4.5827740e+01   6.7005803e+01
   7.0449214e+01   4.5827740e+01   6.7005803e+01
   6.6404770e+01   4.6838851e+01   6.7005803e+01
   6.7415881e+01   4.6838851e+01   6.7005803e+01
   6.8426992e+01   4.6838851e+01   6.7005803e+01
   6.9438103e+01   4.6838851e+01   6.7005803e+01
   7.0449214e+01   4.6838851e+01   6.7005803e+01
   6.7415881e+01   4.7849962e+01   6.7005803e+01
   6.8426992e+01   4.7849962e+01   6.7005803e+01
   6.9438103e+01   4.7849962e+01   6.7005803e+01
   7.0449214e+01   4.7849962e+01   6.7005803e+01
   6.7415881e+01   4.8861073e+01   6.7005803e+01
   6.8426992e+01   4.8861073e+01   6.7005803e+01
   6.9438103e+01   4.8861073e+01   6.7005803e+01
   7.0449214e+01   4.8861073e+01   6.7005803e+01
   6.7415881e+01   4.9872184e+01   6.7005803e+01
   6.8426992e+01   4.9872184e+01   6.7005803e+01
   6.9438103e+01   4.9872184e+01   6.7005803e+01
   7.0449214e+01   4.9872184e+01   6.7005803e+01
   6.7415881e+01   4.5827740e+01   6.7716741e+01
   6.8426992e+01   4.5827740e+01   6.7716741e+01
   6.9438103e+01   4.5827740e+01   6.7716741e+01
   6.7415881e+01   4.6838851e+01   6.7716741e+01
   6.8426992e+01   4.6838851e+01   6.7716741e+01
   6.9438103e+01   4.6838851e+01   6.7716741e+01
   6.7415881e+01   4.7849962e+01   6.7716741e+01
   6.8426992e+01   4.7849962e+01   6.7716741e+01
   6.9438103e+01   4.7849962e+01   6.7716741e+01
   6.7415881e+01   4.8861073e+01   6.7716741e+01
   6.8426992e+01   4.8861073e+01   6.7716741e+01
   6.9438103e+01   4.8861073e+01   6.7716741e+01
   6.7415881e+01   4.9872184e+01   6.7716741e+01
   6.8426992e+01   4.9872184e+01   6.7716741e+01
   6.9438103e+01   4.9872184e+01   6.7716741e+01
   6.7415881e+01   4.5827740e+01   6.8427679e+01
   6.8426992e+01   4.5827740e+01   6.8427679e+01
   6.7415881e+01   4.6838851e+01   6.8427679e+01
   6.8426992e+01   4.6838851e+01   6.8427679e+01
   6.9438103e+01   4.6838851e+01   6.8427679e+01
   6.7415881e+01   4.7849962e+01   6.8427679e+01
   6.8426992e+01   4.7849962e+01   6.8427679e+01
   6.9438103e+01   4.7849962e+01   6.8427679e+01
   6.7415881e+01   4.8861073e+01   6.8427679e+01
   6.8426992e+01   4.8861073e+01   6.8427679e+01
   6.9438103e+01   4.8861073e+01   6.8427679e+01
   6.7415881e+01   4.9872184e+01   6.8427679e+01
   6.8426992e+01   4.9872184e+01   6.8427679e+01
   6.7415881e+01   4.5827740e+01   6.9138617e+01
   6.8426992e+01   4.5827740e+01   6.9138617e+01
   6.7415881e+01   4.6838851e+01   6.9138617e+01
   6.8426992e+01   4.6838851e+01   6.9138617e+01
   6.8426992e+01   4.7849962e+01   6.9138617e+01
